ply
format ascii 1.0
element vertex 1197
property float x
property float y
property float z
property uchar red
property uchar green
property uchar blue
end_header
-0.568776 -0.196371   2.21819 125 120 117
 -1.23189 -0.262567   2.14981 43 43 43
0.259784 0.636047  1.94361 141 125 110
-0.847453  0.134126   2.16283 76 72 63
-0.394229  0.193185   2.03354 185 168 152
 -1.02432 -0.407672   2.26832 22 22 20
 0.472993 -0.222473   2.19203 227 226 222
0.133904 0.625699  2.06566 119 90 72
-1.05277 0.440598  1.92376 131 125 113
0.698966 0.515751  2.03597 138 119 102
-0.846117  0.905399    1.8361 38 37 35
0.882513 0.171497  2.23737 134 114 107
-0.347944 -0.609453   2.66635 75 79 80
0.668271 0.383223  2.09972 51 42 35
-0.242107  0.404349   1.99863 125 115 103
-0.929788 -0.198062   2.22115 108 101 93
0.169503 0.600147  2.05167 246 204 180
-1.08966 0.245131  2.03291 131 123 112
1.09336 0.63929 2.19059 117 100 84
-0.287777 -0.224507   2.04135 58 49 42
 0.793674 0.0182172   2.25614 68 58 46
0.527891  0.10387  2.03494 70 56 43
-0.745565   0.51397   1.96781 122 109 90
-0.258663  0.303645    1.9925 168 151 135
0.520337 0.136527  2.02754 48 39 30
-0.894854  0.597577   1.93299 128 115 96
 1.27557 0.627703  2.20331 62 49 41
-0.773866  0.374395   2.02131 206 195 177
  1.39866 -0.271826   2.73205 71 72 67
 -1.16811 -0.321349   2.21206 51 51 49
   1.2348 -0.183581   2.64116 162 155 137
-0.258608  -0.46878      2.25 214 215 217
 0.315985 -0.146873   2.45251 64 59 53
-0.607166 -0.231337   2.28214 47 45 46
-0.135451 -0.371158    2.1297 100 99 95
 -1.19527 0.0259633   2.15398 99 96 91
-0.899905  0.805946     1.921 117 109 98
0.347307 0.161744  1.94005 151 133 111
0.902895 0.503917  2.13384 38 33 27
-0.0330599   -0.23521    1.97002 143 139 128
-1.02323 0.547139  1.89412 163 150 133
-0.197881 -0.343688   2.09776 105 101 98
-1.01633 0.124869  2.17879 85 84 79
-0.235024 -0.300943   2.05012 102 95 87
  0.892012 -0.0154103    2.30596 84 72 58
 -1.17884 -0.248754   2.13524 99 102 107
 -1.45301 -0.420187   2.32589 81 94 111
-0.139069 -0.156193   1.97245 103 102 98
0.118854 0.723267  1.98008 48 43 37
-0.985847  0.357836    1.9806 155 149 135
 0.539039 0.0502148    2.0576 79 63 47
-0.139611  -0.33372   2.09939 132 133 128
  1.20126 -0.199317   2.66639 61 53 40
-0.739768  0.448751    1.9852 108 96 84
-1.06078 0.419268  1.92907 146 140 128
-0.0933723  -0.470955    2.25464 95 92 87
 0.539901 -0.207988   2.18584 130 120 110
-0.120326  0.420829   1.99574 172 144 122
-0.583373 -0.128598    2.2111 100 97 92
-1.25736 -0.21477  2.08952 63 66 73
-0.975375    0.2368   2.07121 84 80 69
-0.307814 -0.253566   2.07703 54 48 48
0.0665736  0.731964    1.9834 107 97 87
0.615966 0.518824  2.03162 47 40 34
-0.902404   0.20623   2.09878 76 71 65
-0.312203 -0.333595   2.10748 67 57 55
0.246107 0.697908  1.89637 54 45 38
 0.507428 -0.347123   2.28364 204 208 211
0.506957 -0.34684  2.28459 204 208 211
-0.0708129  -0.364191    2.12783 99 98 94
-0.636118  0.164708   2.05374 170 163 155
-0.504591   0.84825   1.94306 56 55 50
-0.955974  0.695382   1.91455 206 191 172
  0.123068 -0.0803094    1.90469 129 119 107
-0.661871   0.44123   1.98736 101 87 74
 0.235993 0.0343918   1.90661 169 152 134
 1.24258 0.504462   2.2005 148 127 110
0.691366 0.368809  2.10594 54 44 35
-0.688819  0.543945   1.97509 183 165 143
-0.0439262  -0.274113    1.99331 151 144 138
  0.429532 -0.0739057    2.06062 109 100 91
-0.881234 -0.365795   2.29604 22 22 20
0.270303 0.195565  1.93106 129 108 87
-0.767803  0.459457   1.98136 143 130 111
0.0588314  0.752747   1.97154 48 44 35
 1.87023 -1.45388  6.59662 240 222 198
 1.12433 0.553032  2.17393 181 147 122
  1.21383 0.0583482   2.36022 150 132 122
 -1.0583 0.803324  1.89104 154 142 126
 0.109117 -0.102972   1.90945 204 194 182
-0.969524 0.0788335    2.2266 71 70 65
 1.85881 -1.35071  6.61311 237 229 210
 0.305557 0.0576619   1.91447 78 68 56
-0.316787  0.332442   2.00266 138 128 116
 -0.19667 -0.431675   2.16488 122 122 120
   1.13381 -0.0940823    2.51665 54 47 39
-0.939215  0.303185   2.01597 94 87 77
  0.825401 0.00386605    2.27617 149 137 121
-0.858152  0.649361   1.93582 168 155 136
-0.220561  0.523032   2.00801 83 67 54
-0.888717  0.852439   1.86311 77 76 71
-0.977607  0.446747   1.94093 67 63 54
0.0725992 -0.224281   1.97493 92 88 79
-0.92004 0.266236  2.04216 74 67 57
-0.176372 -0.326713   2.09317 121 120 115
-1.16265 0.330761  1.93132 91 81 72
0.771252 0.324631  2.15636 77 72 66
  1.24027 -0.404917    2.8835 32 34 33
-0.0433383  -0.112165    1.86647 122 113 104
-0.568066 -0.153133   2.21232 207 195 183
-0.566619 -0.153834   2.21079 207 195 183
-1.09469 0.680251  1.88088 155 142 125
-0.839911  0.364491   2.00237 95 87 76
0.429651 0.545943  2.08324 68 63 59
-1.00735 0.344079  1.98777 149 141 130
 -0.25199 -0.406439   2.11178 75 72 67
-1.02652 -0.39418   2.2562 46 51 57
-1.07752 0.118706  2.17147 80 77 72
0.159033 0.307748  1.93367 168 142 117
1.19247 0.03971 2.38084 123 118 112
  0.665408 -0.0929194    2.21775 49 40 35
 -1.22715 0.0884897   2.12139 98 94 91
-0.181288 -0.122449   1.97692 106 98 95
-0.619815  0.148415   2.11437 80 76 73
 0.536128 -0.251136   2.20698 63 54 45
-1.19098 0.106092   2.1295 80 76 75
-1.04421 0.551134  1.88645 122 110 94
   1.34371 -0.0734389    2.52835 63 62 58
 -0.464051 -0.0974161    2.11868 91 87 86
-0.218598 -0.282184   2.04644 177 168 161
-0.926601  0.247777   2.05152 101 93 80
-0.854893  0.428761   1.97563 117 107 95
0.886782 -0.21164  2.39217 132 116 93
0.00350303   0.753735    1.99049 135 117 103
0.281595 0.101015   1.9054 101 84 66
-0.891791 -0.308609    2.2459 56 56 56
 -1.32059 -0.246372   2.10402 62 66 75
-0.666187  0.173376    2.0443 212 203 194
0.0196781  0.697663    2.0621 149 118 98
 0.730458 0.0347961   2.20599 53 43 33
  0.292826 -0.0524148    1.98752 73 70 63
 0.954428 -0.464323   3.22945 92 96 97
-1.00396 0.400862  1.95683 148 142 130
0.360182 0.645362  1.96063 107 93 80
 -1.27225 -0.121278   2.05526 62 60 63
-0.576657  0.631488   2.01382 172 154 130
-0.664632  0.569542   1.98785 104 87 69
-0.261458 -0.215117   2.04253 219 198 177
0.858261 0.228324   2.2291 37 28 23
-0.642619  0.856917   1.91378 75 74 70
-0.318008   -0.3922   2.13386 89 74 69
0.470438 -0.58252  2.47856 65 70 74
-0.76386 0.284657  2.05899 183 171 157
-1.33513 -0.30002  2.15421 54 63 72
0.193401  0.20449  1.91911 95 78 58
  -1.18433 -0.0146927    2.18446 75 70 66
 -1.01821 -0.388695   2.25392 68 72 73
-1.08365 0.322067  1.98042 139 131 118
   0.882713 -0.00854479     2.30432 126 114 98
0.157107 0.591831  2.06156 225 184 156
-0.127376 -0.228621   1.99436 194 193 189
 -0.61485 -0.521759   2.44619 47 49 48
-0.66406   0.3539  2.03713 158 145 128
-0.149016  0.310204   1.98015 164 147 127
0.0113151 -0.526332   2.36656 115 105 96
0.726734 0.330292  2.14199 23 25 22
-0.225555  0.390633   1.99906 184 166 142
0.0538651   0.23097    1.8944 122 104 80
-0.121392 -0.146546   1.95576 192 191 189
0.844381 0.554839  2.09072 58 45 36
-0.543004 -0.439711   2.43246 72 72 72
-0.565216   0.57748   1.99763 187 159 135
-0.500008  0.459789   1.98648 161 145 122
-0.403748  0.233215   2.00089 98 86 72
-0.291411 -0.355407   2.09876 242 220 206
 1.03718 0.487049  2.16179 51 37 28
-0.500998  0.423501   1.99428 191 175 159
-0.790694  0.755507   1.95746 160 146 133
  0.772752 -0.0117973    2.25201 79 67 55
-0.955066  0.485911   1.93435 85 77 66
-0.246353 -0.228993   2.04214 107 97 85
-0.94404 0.294579  2.02242 132 125 115
 -1.28736 0.0282618   2.15647 96 91 87
-0.993509   0.27937   2.02828 115 107 94
-0.268722 -0.385303   2.09946 222 200 186
-0.953193  0.823029   1.90835 50 47 42
 -1.1726 0.459222  1.86214 61 56 52
 1.25681 0.922048  2.22468 92 78 69
  1.21373 -0.156784   2.61467 146 134 120
0.398184 -0.43676  2.45049 29 33 34
-0.48019 0.790365  2.03272 39 39 37
-0.407865 -0.560928     2.626 110 112 111
-0.0510266  -0.402565    2.17227 172 169 162
-0.311042  0.323686   2.00369 127 114 98
-0.972184   0.36554   1.98181 98 92 80
-1.00254 0.040965  2.25349 98 99 94
-0.562041  0.865475    1.9354 79 78 73
-1.02881 0.384737  1.96399 147 141 129
 0.27858 0.078101  1.90392 171 154 134
0.581046 0.506725  2.02637 92 75 65
-0.390054 -0.613574   2.67679 133 138 141
0.866333 0.223959  2.22595 142 114 102
-0.987936 -0.262483   2.20534 121 114 108
 -0.59203 -0.423838   2.39305 28 28 26
 1.21187 0.793348  2.21129 46 31 24
 0.629089 -0.682911   2.40923 164 144 120
-0.618906  0.632984   2.00371 141 124 106
-0.498606  0.205611   2.03525 176 167 160
 1.17749 0.622885  2.18208 150 121 103
-0.653778  0.177196   2.04026 100 93 85
-0.137562  0.158011   1.86932 134 115 101
   0.909153 -0.00523245      2.3157 92 80 66
 -1.1432 0.253008  1.99597 127 118 103
-1.10324 0.093068  2.17788 95 92 87
0.820736 0.222095  2.22739 47 36 30
 -0.11751 -0.212837   1.99045 178 170 159
-0.696329 -0.164847    2.2052 111 112 107
-1.29022 0.120305  2.08062 133 130 121
0.116345  0.71636  1.98663 91 82 75
-0.250036  0.335858   1.99033 175 160 141
-0.945909 0.0855213   2.22452 98 98 90
-0.757148  0.808771   1.95534 43 39 36
  0.438762 -0.0691557    2.06036 136 127 118
-1.03777 0.328329  1.98538 97 91 79
 0.235432 0.0464968   1.90707 134 121 104
 0.633293 -0.127996   2.19687 123 110 94
 0.483906 -0.478268   2.39342 157 157 157
0.178325 0.669224  1.94622 66 47 33
 0.24684 0.540636  2.05497 182 150 129
-0.416405  0.309247   1.97472 111 101 91
-0.259971  0.226036   1.99978 145 132 116
  1.43608 -0.360469   2.83628 48 48 48
-1.02702 0.224526  2.07213 102 98 89
1.05391 0.43598 2.17407 30 26 23
-0.705145 -0.281673   2.27148 86 79 73
 -1.0485 0.465472  1.91333 101 94 84
-0.379042 -0.240804   2.08236 231 197 185
0.230284 0.697965  1.89164 83 69 58
 1.22648 0.186104   2.3063 87 74 65
-0.842945  0.294439   2.04672 88 81 71
-0.504954  0.521165   1.99748 136 113 95
 0.823911 -0.143533   2.32189 184 164 139
-0.667376  0.492367   1.97842 199 186 167
-0.23304 0.525264  2.00831 64 52 38
-0.549113 -0.449136   2.43487 114 114 112
-0.917529  0.467894   1.95372 116 110 98
-1.11204 0.561251  1.86061 118 109 94
-0.324777  0.187098   2.00839 167 157 147
-0.736104  0.765776   1.96762 133 120 103
  0.874659 -0.0704592    2.32001 74 58 43
-0.511631 -0.174703   2.17875 192 187 181
-0.635743 -0.302628    2.2693 79 78 74
  1.13996 -0.237416   2.68379 64 54 42
-0.33897  0.18699  2.01697 106 94 82
-0.994064  0.431126   1.94617 129 123 111
-1.08243 0.474964  1.89602 106 102 93
-1.27559 0.146084  2.02267 93 90 85
 0.13277 0.802256  1.93439 114 101 93
0.941435 0.141137  2.24594 98 81 71
 -0.903711 -0.0646378    2.21118 147 140 130
 0.279848 0.0450401   1.91159 192 177 158
-0.517258  0.871238   1.93488 57 56 52
  1.63642 -0.459083   3.97328 59 59 59
 -1.22747 0.0505412   2.14591 97 96 92
0.323904 0.259389  1.95692 186 164 141
 -0.82432 -0.373944   2.28741 37 39 38
-0.116025  0.776864   1.99161 54 49 45
-0.656579   0.41368   1.99528 156 143 126
-0.80147 0.296763  2.04943 174 165 150
 -1.0334 0.204731  2.08789 54 51 44
-1.10222 0.549475  1.86953 82 72 62
  1.17011 0.0398744   2.37878 43 42 37
  0.574809 0.00291275    2.09744 114 97 81
-0.397785 -0.143065   2.09624 168 155 146
-0.977301  0.455909   1.93623 115 111 100
 0.483172 -0.180198   2.15353 153 145 134
-0.193807 -0.323608   2.08136 55 54 52
-0.106514 -0.360808   2.12767 87 86 82
 -0.51124 -0.534961   2.55934 109 111 110
-1.14257 0.431864  1.89128 115 111 100
-0.954828  0.717247   1.91483 196 181 162
 -1.20024 0.0435629    2.1485 83 80 75
-0.633206   0.41311   1.99826 123 107 91
   1.53621 -0.0243413    2.57383 36 35 33
0.198119 0.650597  1.94873 126 108 96
0.518383  0.61052  2.03307 91 88 83
0.605898 0.498563  2.03414 165 134 113
 0.131825 -0.058711   1.89674 92 87 81
   1.24991 -0.0242286    2.51897 34 31 24
 0.354749 -0.453891   2.52629 41 42 44
-0.648096  0.136821   2.11296 67 62 59
 0.465252 -0.601843   2.49592 28 33 37
  0.440203 -0.0341423    2.03237 126 116 104
-0.721109   0.39629   2.01397 105 98 88
-0.598916  0.708594   2.01618 86 72 59
0.781477 0.229093  2.23439 146 117 101
-0.362958 -0.599155    2.6576 137 138 140
-0.877167 -0.378008   2.30695 55 56 60
 1.14419 -0.45412   2.9902 115 119 122
-0.388173    0.3518   1.96147 199 182 162
 1.12819 0.268447  2.25233 86 82 73
-0.838853  0.474971   1.96287 75 67 54
0.295533 0.300759  1.96274 81 60 43
0.329057 0.709307  1.94741 55 47 44
-0.945122  0.658269   1.91086 183 167 151
 0.760633 -0.319927   2.41745 84 71 62
-0.294272    0.4274   1.96598 84 72 58
 -1.27526 -0.282501   2.15184 141 146 150
-0.274749  0.202791   1.99971 167 153 140
 -1.17795 -0.190954   2.08851 59 59 59
 0.840571 0.0564441   2.27275 80 70 58
-0.832337  0.281902   2.05939 130 123 115
-1.16821 0.176505  2.03776 77 74 69
-1.30413 0.127908  2.06628 66 66 66
-1.00485  0.32816  1.99215 157 151 137
  -1.21679 -0.0796602    2.07817 104 100 91
0.484989 0.128857  2.00738 158 141 123
0.748491 0.784665  2.08471 115 98 82
-1.12549 0.112296  2.15526 81 80 75
-0.171849  0.837007   1.95336 46 37 30
-0.656367   0.59822   1.98863 114 97 77
0.187151 0.430668  2.01309 179 143 119
 1.41454 -0.25974  2.72756 50 46 43
0.487291 0.201234  2.00809 206 186 162
 0.431532 -0.644552    2.6707 158 160 159
 0.337479 -0.241775   2.44872 40 30 28
-1.04517 0.519368  1.89276 113 107 93
-0.128486 -0.105659   1.93395 71 71 69
 0.542682 -0.288022   2.24367 54 45 38
-0.910835  0.260069   2.04475 116 108 97
0.000517055   -0.143734     1.91627 71 71 71
-0.685145  0.457166   1.98301 73 65 52
-1.02856 0.684439  1.89165 197 182 161
0.0272557  0.218087   1.89743 159 135 107
-0.387459  0.256367   1.99826 51 42 33
-1.08072 0.353899  1.95878 101 95 83
0.479046 0.246397  2.01318 139 118 97
-0.513133  0.148226   2.08714 87 82 76
 0.326896 0.0900167   1.92271 81 67 54
 0.581415 -0.174664    2.1827 126 113 97
-0.649698  0.319035   2.02759 105 89 73
-0.638415  0.819639   1.95228 75 72 67
-0.632437  0.403838   2.00136 63 53 41
0.121829 -0.58867  2.50485 84 74 64
-0.524371   0.24605   2.01742 99 87 75
-0.917307  0.293778   2.02599 155 149 137
 0.57516 0.600023  2.03651 42 38 29
-0.636212  0.365165    2.0187 143 134 119
-0.150705 -0.267411   2.03988 172 171 166
0.138446 0.729227  1.96782 57 46 40
-0.843627  0.338484   2.02174 144 136 123
-0.988424  0.272754   2.03326 131 119 107
  0.582092 -0.0963779    2.15405 84 74 64
 0.48912 -0.56343  2.47175 92 83 76
-1.01984 0.432018  1.93745 73 66 58
 0.139772 -0.118645   1.91559 160 152 141
0.605712 0.508588  2.03161 53 44 37
  -1.0439 -0.145048   2.18449 96 86 84
-0.253827  0.765009   2.00852 51 52 47
-0.724072  0.381221    2.0229 145 136 121
 -1.07068 -0.334696    2.1702 115 113 114
-0.988939  0.568992   1.89939 143 132 114
  0.154027 -0.0849117     1.9096 174 157 139
-0.736802  0.836937   1.91454 77 76 72
0.0354117  0.553512   2.05826 183 147 123
0.157034 0.292599  1.92736 111 84 63
-0.650436 -0.174743   2.21293 87 89 88
0.0873362 -0.197827   1.96366 100 96 87
0.0876343 -0.197883   1.96351 100 96 87
 0.602741 -0.208135   2.20167 64 59 56
 0.0885149 -0.0930189    1.90133 174 162 148
 -1.28667 -0.235776   2.10605 83 88 94
 -1.03228 -0.186957   2.18621 71 70 65
 -1.06537 -0.195328   2.17411 59 58 56
-0.0282246   -0.37257    2.13714 214 213 208
0.212311 0.544137  2.06129 226 185 157
0.0146796  0.783298   1.95976 44 41 34
-0.981457  0.527798   1.91692 80 70 58
0.402461 0.754936  1.95493 38 37 35
 -0.48281 -0.496293   2.52253 32 34 31
-0.712395 -0.324901   2.28387 65 61 60
  0.1109 0.304341   1.9171 121 100 81
-0.022128  0.722467   2.07224 41 36 32
-0.0668866  -0.488057    2.27928 31 30 28
-0.619075  0.572334   1.99868 233 201 176
-0.785516  0.311743   2.04832 107 99 86
 -1.1028 0.257257  2.01015 142 135 119
-1.03989 0.779892  1.89791 158 146 130
-0.101735  0.809814   1.96805 41 36 32
 -1.24746 -0.142957   2.07016 61 61 61
-0.576812 -0.443584   2.41744 28 30 27
-0.739095 -0.093427   2.17268 160 153 143
-0.877133  0.546809   1.94007 196 181 160
 -1.02331 -0.186242   2.18812 95 90 84
  0.295381 -0.0381153    1.98203 57 52 48
-0.364671  0.178752   2.02236 207 194 177
 0.465945 -0.456152   2.37466 145 141 140
-0.377953  0.170876   2.02622 91 88 83
-0.164865   0.81527   1.95428 56 47 40
 0.689398 -0.421259   2.47792 88 78 66
  0.48396 -0.132029   2.11867 117 113 104
-0.752927 -0.346623   2.29109 45 45 47
 0.360519 0.0289701   1.96185 137 125 109
 -1.01517 -0.396827   2.26224 52 55 60
   0.173 0.204606  1.91744 141 122 105
0.0112569 -0.142227    1.9164 69 69 69
-0.451051   0.24457   2.00061 201 182 167
-0.535558  0.176345   2.06159 132 127 121
-0.721862  0.800934   1.96664 119 111 100
  -1.0732 -0.112274   2.16892 47 46 42
0.0582671  0.241148   1.89574 174 154 130
-0.0385442  -0.214038    1.96626 209 206 199
 0.171953 0.0191759   1.87972 100 88 74
 0.436808 0.0285249   1.99955 156 140 124
-0.618741   0.74548   2.01006 66 54 42
 0.556295 -0.163535   2.17428 34 29 25
 -1.04227 -0.185954   2.17809 98 95 88
-0.621242  0.864145   1.91411 39 39 37
 0.584803 -0.249614   2.22441 67 58 49
0.0342094 -0.267024   1.99175 162 150 138
-0.739729  0.530599   1.96702 126 111 92
-0.0492309  -0.475073     2.2663 170 166 157
-0.0197988  -0.295514    2.00966 94 94 94
  -1.3406 -0.363579   2.21445 58 66 77
 0.553438 -0.437382    2.3857 35 34 32
-0.407291  0.557525   1.98213 159 142 122
 0.421613 0.0731893   1.97822 101 85 69
-0.19776 0.547252  2.01506 195 177 155
 0.475519 -0.289088   2.24264 193 194 189
-1.00248 0.541908  1.89834 125 116 101
-0.525604  0.259127   2.01187 69 60 51
-0.234604  0.182178    1.9891 164 147 131
-0.767984  0.593645   1.95497 205 190 169
-0.311178  0.773263    1.9316 47 46 41
0.496828 0.133897  2.01518 90 74 59
0.478338 0.176811  2.00798 69 53 38
-0.401115  0.317972   1.97136 78 68 58
-1.04849 0.591376  1.87952 153 140 123
-0.175877  0.311012   1.98228 137 121 106
-0.637845  0.494097   1.98568 56 46 36
-0.758825  0.596554    1.9528 149 134 113
-0.941359 -0.188566   2.22271 79 70 65
-0.916118  0.777958    1.9209 88 78 68
 -1.23231 -0.294416   2.17899 46 53 63
-0.91165  0.42275  1.96529 87 81 69
0.416492 0.211545  1.98289 164 146 124
-0.988879  0.341965   1.98472 144 138 124
-0.908131  -0.12329    2.2363 82 74 63
-1.11576 0.461065  1.89699 55 50 44
 0.525384 -0.126103   2.13342 93 83 73
-0.454947  0.476891   1.98095 67 58 49
-0.754034 -0.322837    2.2815 50 48 49
-0.0544227  -0.417466     2.1953 104 100 99
  0.04799 -0.122584   1.91192 71 68 63
-0.502262 -0.480345   2.48753 104 104 104
-1.07913 0.590586  1.87272 162 149 132
 -0.33569 -0.357489   2.11287 73 69 68
 -0.15869 -0.428213   2.18724 105 104 100
0.0594898 -0.627766   2.48987 62 58 55
 0.313193 -0.629658   2.66908 105 100 94
-0.924859 -0.427136   2.32201 18 17 15
-0.578199 -0.391797   2.37485 48 48 46
-0.900724  0.618333    1.9278 122 109 92
0.205647 0.128079  1.91015 189 167 143
 -0.981101 -0.0721883    2.21409 139 135 126
 -0.61956 -0.144077    2.2105 74 74 72
  0.38998 -0.102572   2.08841 142 142 140
-0.783157  0.488797   1.97022 100 88 72
-0.648983  0.309299   2.02916 196 180 164
 0.508934 -0.444303   2.36442 115 111 102
-0.34642 0.278878   2.0193 67 57 48
0.772747 0.232284  2.23601 47 34 26
0.0378471 -0.610356   2.46545 93 90 85
 0.455963 -0.445651   2.37125 209 209 207
0.0459924 -0.169793   1.93043 143 135 122
-0.905249  0.649884   1.92333 109 98 80
 0.0935991 -0.0731135    1.89847 158 146 134
 0.480808 -0.049892   2.05944 110 102 91
0.0291746  -0.23128   1.96661 66 61 55
-0.340223 -0.441054    2.1866 193 192 188
-1.03895 0.574011  1.88624 159 146 129
 -1.25396 -0.158242   2.07503 57 56 61
 -1.04923 -0.230109   2.18357 61 61 59
0.0877006  0.163152   1.89137 175 159 134
0.158935 0.212289  1.91635 179 159 135
 0.377311 0.0514095   1.96512 96 82 69
 0.440853 -0.359481   2.39462 33 29 26
-0.288558  0.290598   1.99852 99 81 67
-0.224917 -0.381667   2.10831 93 90 85
-0.681877  0.765094   1.98098 75 65 53
-0.932129  0.840606   1.84795 75 72 67
-0.953824  0.680079   1.91238 67 54 38
-0.606583 0.0623355   2.19956 68 68 66
 0.529638 -0.378896   2.31341 124 117 111
  0.46675 -0.239346   2.20685 143 143 143
-0.941136  0.523434   1.93184 96 84 68
-0.742637 -0.301115   2.26802 44 43 41
-0.705819  0.730217   1.97429 74 62 50
-0.841284 -0.140004   2.23498 115 110 104
 0.045056 -0.595251   2.46059 127 119 106
 -1.35715 -0.356354   2.20234 66 74 85
 -1.09131 -0.289808   2.15392 53 51 54
-0.715542 0.0203622   2.21458 169 133 111
-0.429726  0.238763   1.99622 104 86 72
 0.346186 -0.447687   2.52997 171 171 163
-0.51263 0.188335    2.056 74 70 67
-1.12097  0.69644  1.87597 101 88 72
-0.757914  0.661332   1.96052 73 64 49
-0.636337    0.4227   1.99655 63 53 43
 0.346168 -0.633789   2.69693 162 159 154
-0.0530908  -0.587991    2.42752 129 131 130
0.0980988 -0.598315   2.49778 139 129 117
-0.546938   0.38595   2.00673 132 119 103
-0.335811  0.206046   2.01798 87 73 62
-0.28535  0.20197  2.00051 63 53 41
 0.349719 -0.370643   2.46102 145 144 139
-0.814481  0.510279   1.96227 151 138 121
-0.816165  0.518546   1.95756 96 82 69
  0.28554 -0.218937   2.50407 61 63 60
-0.799117  0.534987   1.95477 87 71 55
-0.936289  0.677304   1.91768 105 93 79
-0.697793  0.546086   1.97068 108 93 74
-0.593326  0.169454   2.07495 130 129 125
-0.0591714  -0.608409     2.4706 101 101 101
-1.01337 0.546139  1.89341 78 68 58
-0.685105  0.494244   1.97359 161 146 127
 -1.0633 0.524045  1.88381 81 71 61
-0.910319  0.717648   1.92376 98 85 69
 0.439708 -0.644713   2.66733 198 200 199
-0.981656  0.480829   1.92785 120 112 101
-0.975165  0.642149   1.90033 138 127 109
-0.804529   0.52742   1.95556 164 151 134
-0.0588385  -0.501946    2.28868 125 124 120
-0.836482  0.614197   1.93927 186 170 154
-0.191546  0.285481   1.98319 123 107 91
-0.405632  0.338478   1.96877 82 70 56
-0.260572  0.192939   1.99896 167 150 134
-0.343278  0.323948   2.01241 62 55 49
-0.549024  0.118049   2.10836 188 178 168
-0.567227  0.307644   1.99907 188 161 142
-0.379053  0.262993   2.00069 107 95 83
0.00618054  -0.305211    2.02235 94 95 97
-0.431322  0.222256   2.00694 168 151 135
 0.411376 -0.214874   2.46561 106 89 79
-0.628836  0.170257   2.05163 85 78 68
-0.00325789   -0.296748     2.01576 157 161 162
-0.590348  0.393337   2.00618 84 72 60
 0.486387 -0.402738   2.33565 188 192 195
 0.471953 -0.433505   2.36438 55 55 53
-0.47896 0.350561  1.97703 190 159 138
 0.467609 -0.641551   2.64974 206 207 209
-0.200594  0.331602   1.98613 174 152 131
-0.380373   0.23566   2.01241 130 122 111
-0.119943  0.091909   1.81751 89 75 64
 0.309088 -0.128681    2.4518 69 64 60
-0.444101  0.292189   1.98648 118 105 97
-0.619995  0.211492   2.02663 71 66 60
-0.362145  0.289987   2.01139 63 53 44
-0.454428  0.217335   2.01492 106 99 91
-0.647512 0.0988843    2.1585 104 90 81
 0.458815 -0.600777   2.50862 99 107 110
-0.216906  0.327622   1.98622 136 117 100
-0.393369   0.20325   2.03209 83 78 74
 0.568007 -0.373045   2.32651 37 36 31
 0.486882 -0.607604   2.47404 234 238 239
 0.114065 -0.628326   2.51943 145 138 128
-0.333998  0.331255   2.00759 88 84 75
 0.493571 -0.468424   2.38133 160 160 158
 0.385105 -0.487312   2.50117 31 32 34
 0.368326 -0.399285   2.45381 150 147 142
 0.372216 -0.467491   2.50841 168 172 171
 0.448756 -0.379985   2.38805 36 36 36
  2.16817 -0.838082   4.25793 71 67 56
 1.90753 -1.32321   6.5217 249 237 215
-0.333827 -0.449505   2.30804 13 17 20
-0.376609 -0.626131   2.69728 149 155 155
-0.678625  -0.56388   2.58759 18 19 14
-0.204993 -0.607662   2.68388 157 161 162
-0.333814 -0.446428   2.20085 193 193 191
-0.11691 -0.53283  2.35917 177 181 184
-0.994368  -0.43376   2.28578 71 70 68
-0.848752 -0.508644   2.50754 26 26 24
0.00287836  -0.638342    2.95853 103 107 106
 0.463949 -0.317496   2.30702 173 177 180
-0.767712 -0.486528   2.49576 22 23 25
  0.42418 -0.595911   2.57055 255 254 229
 0.945399 -0.478464    3.2581 131 137 137
-0.541392  0.161403   2.08547 105 100 94
-0.738572 -0.435664   2.36555 41 41 39
-0.621734 -0.529211   2.47587 42 44 41
 0.024798 -0.314801   2.04991 25 25 25
 0.884348 -0.497328   3.32614 68 72 73
 0.426916 -0.595807    2.5452 36 44 47
-0.563064 -0.576847   2.62903 126 126 126
-0.341515 -0.434269   2.17091 59 54 50
 -1.01044 -0.441836   2.30079 24 20 17
-0.328145 -0.457116   2.23705 16 20 23
-0.377635 -0.469909   2.50779 83 83 85
-0.387994 -0.464277   2.53137 162 166 165
-0.171149 -0.523083   2.34001 184 184 182
  0.83823 -0.451627    3.2341 23 27 28
  1.50314 -0.347951   4.04498 43 39 36
  1.31728 -0.224198    2.7275 153 143 133
  0.44305 -0.396818   2.40663 24 24 24
-0.519449 -0.595025    2.6825 37 39 38
   0.5109 -0.347927   2.27947 174 174 172
-0.420232  -0.46435   2.24279 233 230 225
  1.13126 -0.491367   3.06492 107 109 108
-0.215474 -0.539078   2.44589 96 100 103
-0.755285 -0.511294   2.58961 44 46 43
-0.0695564  -0.302489     2.0272 229 229 227
-0.743018 -0.442096   2.38554 26 26 24
-0.467066 -0.565003   2.61328 213 215 212
  0.42845 -0.556563     2.502 15 20 23
 0.395328 -0.519558   2.51268 30 34 37
  1.58666 -0.441478   3.94524 37 39 38
-0.789638  -0.48449   2.44977 29 29 29
 0.432924 -0.371332   2.40199 201 195 183
 0.856593 -0.479575   3.28798 68 72 75
-0.459628 -0.613848   2.70852 33 34 36
-0.864147 -0.494163   2.45024 220 220 220
-0.371192 -0.466193    2.2756 17 21 22
-0.437028 -0.470313   2.28552 235 235 235
  1.66092 -0.368864   3.59542 53 53 53
 -0.32712 -0.673498    2.7526 34 38 39
-0.663234  0.138512   2.09394 127 126 122
-0.173159 -0.506841   2.30971 187 186 181
  1.22256 -0.331143   2.84273 59 60 62
 0.538203 -0.664964   2.47038 40 45 49
-0.0319204  -0.635902    2.52315 174 175 179
-0.0898082  -0.531844    2.33139 237 239 238
 0.77954 -0.49317  3.33387 63 64 66
-0.280948 -0.517038   2.34427 112 112 112
-0.826299 -0.384395   2.29538 25 25 25
  1.19879 0.0100689   2.42185 42 43 38
 0.405706 -0.657242   2.68605 139 140 142
-0.305206 -0.644106   2.70675 111 112 116
-0.377342 -0.678056   2.79175 19 20 22
-0.0601979  -0.331758    2.07745 163 160 153
  0.51769 -0.462061   2.38984 137 126 120
-0.0240963  -0.572475    2.39541 154 156 155
-0.582392 -0.578642   2.62659 30 30 28
 0.119679 -0.662705    2.6552 229 229 231
 -0.40112 -0.439913   2.19889 140 140 132
-0.514133 -0.496356   2.50241 90 89 87
 0.761283 -0.486716   3.32674 97 98 102
-0.322349 -0.662857    2.7291 146 150 149
-0.062617 -0.588168    2.4369 203 211 214
-0.775358 -0.499668   2.51827 117 119 118
-0.975129 -0.438543   2.30711 28 27 23
-0.0586279    -0.4393    2.22684 193 190 183
-0.0153376  -0.427013    2.22645 16 17 19
 1.63596 -0.45859   3.9713 39 41 40
-0.590735  0.180579   2.06261 68 64 55
-0.736838 -0.449845   2.39827 24 24 22
-0.482651 -0.528532   2.55632 59 59 59
-0.561362 -0.225605   2.24627 192 193 195
-0.295543 -0.652205   2.70677 94 98 101
  1.00062 -0.427853   3.06539 48 48 46
 0.915387 -0.464149    3.2415 100 105 108
 0.412996 -0.674624   2.71001 195 200 203
-0.0601215  -0.608644    2.47053 87 88 90
 0.33383 0.119486    2.236 59 52 46
 0.368868 -0.100638   2.09568 82 84 81
-0.186282 -0.505488   2.31277 98 95 90
-0.675427 -0.438395   2.36302 23 23 23
-0.122736 -0.595172   2.48058 218 227 226
 0.979957 -0.472742   3.20361 102 105 110
-0.494615 -0.567093   2.62352 65 63 64
-0.405123 -0.472369   2.26643 173 169 168
  1.66559 -0.352109   3.55529 157 157 157
0.969967 -0.45943  3.18037 156 166 168
-0.187806 -0.512999   2.32525 158 162 163
-0.88989 0.174991  2.12407 105 101 92
-0.00606033   -0.583687     2.40931 125 125 123
  1.68618 -0.370859   3.53486 83 83 81
-0.0373386  -0.537911    2.34255 117 116 112
-0.367648 -0.609508   2.66745 74 76 75
-0.140842  -0.44555   2.22115 122 121 117
 0.969683 -0.447677   3.16147 159 164 168
0.134876 -0.64601  2.56133 166 166 164
 0.106902 -0.657194   2.63709 234 234 234
-0.595208  0.148736    2.1113 153 150 145
  1.63458 -0.457936   3.74432 73 77 76
-0.488662 -0.582891   2.66553 124 128 129
 0.373465 -0.469345   2.50519 203 205 204
 1.65541 -0.47345  3.97479 39 41 40
  1.26774 -0.439877   2.90963 19 21 20
   1.5771 -0.136993   2.68139 117 118 113
  1.27519 -0.448075   2.89972 121 123 122
-0.532759  -0.55037   2.59284 64 64 64
-0.192123 -0.548658   2.44619 106 114 117
 0.697994 -0.490478   3.32639 119 123 124
  1.13182 -0.482568    3.0376 163 167 168
  1.57548 -0.125645    2.6547 99 99 97
-0.712994  0.824948   1.93456 84 81 72
 0.402293 -0.558613   2.53688 202 207 210
-0.361372 -0.460172   2.25149 89 84 80
   1.1964 0.0303964   2.39262 18 20 15
 0.390044 -0.143617   2.14855 88 89 91
 0.388862 -0.692508   2.82099 220 222 221
-0.638826  0.141687   2.11085 94 91 84
-0.171312 -0.528739   2.38773 229 237 240
-0.0468544  -0.499261    2.28941 75 70 66
-0.186376 -0.526149   2.36401 176 176 174
 0.884896 -0.493241   3.32224 51 55 56
 0.701151 -0.795948    2.3698 22 26 29
-0.891496  0.860653   1.86392 93 88 82
-0.107394 -0.322764    2.0747 100 97 92
 0.349206 -0.371164    2.4603 161 160 156
-0.650149 -0.175249   2.21264 94 93 88
-0.348208 -0.440565   2.18403 63 59 56
 -0.55386 -0.572401   2.62249 36 36 36
-0.0472536  -0.437632    2.22307 168 165 160
 0.412427 -0.161555   2.16288 150 151 146
0.0151945 -0.306693   2.02417 181 180 176
 -0.32535 -0.491604   2.36407 161 167 167
-0.0678967  -0.536215    2.32904 197 198 192
-0.411564 -0.470462   2.24988 92 87 83
-0.397366 -0.575368   2.63402 33 35 34
-0.0536337  -0.125785    1.89406 154 159 162
-0.00599779   -0.649021     2.54784 125 129 130
  0.49568 -0.295204   2.24432 147 145 146
 0.940398 -0.444535    3.2071 72 76 77
0.00328401  -0.329844    2.06409 152 152 150
 0.328828 -0.665284    2.6942 120 119 117
 0.493129 -0.671127   2.78628 134 134 134
-0.709723 -0.183827   2.24592 154 155 147
-0.0113382  -0.343909    2.09697 152 148 145
 0.466287 -0.264961   2.24269 158 153 149
  1.06284 -0.475765   3.02844 59 63 64
-0.135726 -0.498315   2.29385 47 46 42
-0.211297 -0.497098   2.26055 91 90 88
-0.0499966  -0.426194    2.20415 108 103 99
-0.0514801  -0.456877    2.24818 179 175 166
-0.0666343  -0.117728    1.86326 104 106 105
-0.020222 -0.142199   1.90632 133 132 127
-0.308353 -0.446184   2.19513 111 107 98
 0.455388 -0.656327   2.67482 124 124 122
-0.00275981   -0.300856     2.01304 144 143 139
-0.0473163  -0.537746    2.33968 210 212 209
  0.50541 -0.641828   2.74329 189 189 189
-0.0783345  -0.631107    2.87999 36 36 36
-0.378255 -0.471461   2.44848 184 184 184
-0.900832 -0.177451   2.21747 182 165 145
-0.783424  -0.48982   2.52038 24 24 24
-0.787025 -0.314166   2.29183 36 36 34
 -0.46257 -0.432716   2.32774 236 235 231
 -0.22487 -0.718185   2.92609 179 183 184
3.16657 1.64921 1.96107 147 108 79
-0.918605 -0.514666   2.50475 45 45 45
-0.271548 -0.586382   2.68278 44 44 44
-0.577525 -0.549003   2.57662 23 23 21
  0.47542 -0.625774   2.65512 187 191 192
-0.197566 -0.308569   2.08163 92 88 85
-0.753047 -0.525373   2.66782 112 116 117
3.33573 2.55228 1.69976 188 152 126
  1.16084 -0.350885   2.87358 41 43 42
 0.539766 -0.634421   2.59244 40 40 38
-0.77376 -0.45276   2.3802 20 20 20
-0.876244 -0.497685   2.45422 70 70 68
 -0.27651 -0.360361   2.10689 251 232 218
-0.0140946  -0.599074    2.43378 200 205 209
-0.304735  -0.66365   2.73047 123 127 126
 0.800772 -0.424385    3.7377 58 60 59
-0.280555 -0.405745   2.16675 32 31 27
 0.193037 -0.651851    3.1347 118 122 121
 -0.68509 -0.326766   2.27118 180 166 155
-0.0191832  -0.323593    2.05796 220 222 219
 0.373523 -0.419469   2.48747 24 26 25
  1.43094 -0.275483   2.73711 113 110 103
  1.06111 -0.410813   2.91162 174 178 181
 0.109725 -0.663065    3.1012 122 124 123
  0.13011 -0.616082   2.95801 193 194 196
-0.885501 -0.515524   2.74798 40 41 43
-0.697848 -0.425072   2.34514 28 28 26
-0.698247 -0.427018   2.34619 28 28 26
-0.123014 -0.676847    3.0206 125 127 126
-0.940794 -0.513874   2.62672 39 39 39
-0.994487 -0.479424   2.44564 26 28 27
 -1.26453 -0.445462   2.40284 103 105 104
-0.204727 -0.693386   3.01242 47 47 47
 0.825939 -0.486722   3.31988 134 138 141
 -1.21194 -0.475012    2.7051 154 155 160
 0.216295 -0.653927   3.20423 209 211 208
  -0.5584 -0.560015   2.60218 61 61 61
0.0784814 -0.662347   3.16026 26 28 27
-0.291036 -0.503451   2.43491 186 190 191
3.01669 1.87283 2.26828 221 173 127
0.817518 -0.39182  3.69866 221 221 223
-0.040012 -0.464545   2.25676 132 128 119
 0.372721 -0.685221   2.92709 204 208 209
 0.960422 -0.452561   3.18998 144 149 152
-1.18498  0.17165  2.08831 28 28 28
  1.15165 -0.366364   3.70185 51 51 49
  1.22177 -0.399772   3.67279 178 180 179
 0.467364 -0.567879   2.62475 18 19 21
-0.493392 -0.502501   2.53208 99 99 99
   1.27436 -0.0324931    2.50989 101 100 96
  1.07136 -0.350408   2.89166 51 50 48
 0.477878 -0.541598   3.49873 44 46 45
 0.225227 -0.671102   2.72527 242 247 250
  1.40424 0.0189644   2.44829 23 22 18
3.74478 7.37566 1.20594 253 250 219
 -1.16607 -0.437407   2.31414 31 33 32
 0.485822 -0.499318   2.44384 148 149 151
 0.251189 -0.660739   2.66961 178 178 178
 0.993919 -0.454558    3.1225 132 137 141
3.48481 4.96581 1.57865 163 135 111
-0.292188 -0.507542   2.63796 59 61 60
-0.677682  -0.58597   2.66196 35 34 30
 -0.47796 -0.630859   2.78124 51 53 52
 -0.16261 -0.527863   2.38867 181 189 191
-0.790094 -0.523912   2.62912 29 31 30
-1.27477 0.489421  1.80647 111 101 89
-1.2273   0.131 2.09695 102 97 91
   1.3339 -0.126131   2.60108 175 169 157
  -1.1903 -0.472275   2.55255 39 40 42
-0.601527 -0.167435    2.2261 223 222 217
-0.518392 -0.562802   2.60803 176 180 181
-0.229555 -0.727048   2.86274 122 122 122
3.36427 2.97834 1.59356 255 253 234
-0.820273 -0.522492   2.71605 27 28 30
-0.278789 -0.515672   2.38652 130 130 130
 0.457676 -0.695794   2.86926 76 75 71
 0.875208 -0.464195   3.25915 83 87 90
 -1.24243 -0.437863   2.38287 33 34 36
-0.328606 -0.642532   2.69339 72 76 75
 -1.20665 -0.391456   2.28238 28 30 29
-0.865638 -0.503969   2.49401 27 29 28
-0.492954   -0.6357   2.81361 145 147 146
-0.369936 -0.655788   2.72503 99 105 105
-1.30772 0.149129  2.01166 89 86 81
-0.651791 -0.531726   2.52481 50 52 49
 0.901168 -0.411802   3.67728 215 219 220
0.0751647 -0.625913   2.50104 50 45 39
 0.341316 -0.673599   2.70521 214 219 223
-0.383986 -0.466752   2.32366 20 21 23
-0.083884 -0.533736   2.33943 232 236 237
-0.126255 -0.428794   2.18891 209 208 203
-0.93774 0.240565  2.05134 164 157 141
-0.00649904   -0.557918     2.37927 200 199 195
  1.13983 -0.488371   3.03766 155 156 158
2.96551 1.47629 2.26493 133 88 57
 0.422436 -0.599199   2.56941 255 254 229
-0.426689 -0.671771   2.83478 194 202 204
-0.90646 0.903833  1.82967 30 30 28
 -1.02121 -0.495733   2.61148 49 49 49
 0.620541 -0.595879   2.93896 42 41 39
-0.158892 -0.261723    2.0359 203 202 198
  1.56563 -0.130492   2.63083 119 118 114
  1.11022 -0.491736   3.14468 192 196 197
-0.746434 -0.483808   2.51951 22 23 25
 0.956118 -0.500345   3.32811 86 90 91
3.10486    1.31 1.84271 148 123 103
3.23959 3.20334 2.02742 98 88 78
  1.16721 -0.477494   3.01643 56 56 58
-0.918863  0.221863   2.08222 122 118 106
   1.28549 0.00313272    2.42126 15 15 13
-0.628606 -0.520383    2.4532 78 77 73
-0.0664927  -0.579092     2.4074 215 220 223
 0.884669 -0.496755   3.32649 68 72 73
 0.481837 -0.624086   2.61724 142 144 143
3.44061 3.96266 1.87449 200 162 126
-0.990319  -0.49016   2.51907 35 35 33
 -0.33764 -0.228818   2.05667 200 190 181
-0.696812 -0.498739   2.53496 38 39 43
-0.433282 -0.624483    2.7271 43 45 44
   1.2047 -0.334936   3.79157 197 199 198
 0.248574 -0.665851   2.88064 201 201 201
-0.316015 -0.486535   2.54578 162 163 165
-0.983999 -0.483891   2.46248 28 28 28
-0.0502494  -0.247695    1.98463 218 206 192
-0.829954 -0.528643   2.61344 26 27 29
3.51537 5.61704 1.69946 207 173 138
  -0.9195 -0.464749   2.42266 27 29 28
 -1.08214 -0.498979   2.40409 34 35 37
 0.533876 -0.675964   2.51463 255 255 233
-0.387188 -0.679254   2.93778 145 145 143
 -1.20294 -0.479526   2.58052 150 151 153
-0.0026312  -0.352267    2.11074 26 26 24
-0.388246 -0.467478   2.26959 145 144 140
3.25169 1.97997 1.83962 255 255 217
 0.447543 -0.694552   2.91052 214 215 217
  1.05781 -0.487395   3.16725 86 90 91
 -1.18621 -0.299862   2.18998 30 30 30
 0.148365 -0.661872   3.15386 49 49 47
-0.910804 -0.386208   2.30178 24 26 23
-1.28181 -0.44729  2.43963 49 50 52
  1.11407 -0.366319   3.64839 182 186 187
3.44295 4.63051 2.04775 173 138 108
 -0.36532 -0.668389   2.75584 87 88 90
-0.923524  -0.36333   2.27075 30 30 30
0.323718 -0.69479  2.74594 220 227 233
-0.798865 -0.524386   2.59197 165 165 165
3.20643 1.67163 1.80815 232 195 150
3.66537 4.66408 1.28826 204 175 141
-0.751287 -0.516586   2.60764 17 21 22
-0.382736 -0.475637   2.52992 149 150 152
3.43306  4.5111 1.77585 73 57 42
0.224631 -0.67472   2.6712 150 150 152
 -0.582746 -0.0833067    2.16982 158 155 150
-0.696692 -0.477999   2.43882 27 29 28
 0.554472 -0.416473   2.36442 133 124 115
  1.24842 -0.236755   2.74207 41 37 28
-0.741064  -0.54341   2.67517 109 113 114
3.39771 3.34129 1.62936 201 161 125
-0.729698 -0.456953   2.41089 20 22 21
-0.859769 -0.522099   2.53131 102 101 99
-0.567604 -0.610113   2.79901 31 33 30
3.07764 1.56329 2.07603 255 234 195
-0.0107192  -0.336337    2.08172 157 157 155
0.0442893 -0.690205   3.13433 34 36 35
 1.27275 -0.34634  3.87463 38 37 33
-0.863817  -0.50257   2.81042 138 138 138
 0.247942 -0.664301   3.17793 57 55 58
 -1.20451 -0.347374   2.26067 24 25 27
3.27762 2.42364 1.94897 192 147 105
-0.586601 -0.591478   2.71497 36 37 32
 1.86425 0.193272  2.47522 35 34 30
 0.253295 -0.659359    3.1419 49 49 47
-0.0111208  -0.334182    2.08355 169 169 167
-0.496796  -0.60418   2.70396 35 35 35
-0.908219 -0.326998   2.25846 75 74 69
 0.686598 -0.349599    2.4041 118 106 94
 0.949851 -0.415771    3.7259 38 38 36
-0.825588 -0.477501   2.43622 26 26 24
 0.598312 -0.510545   3.47006 147 149 148
 3.2263 2.53355 2.08342 255 255 211
-0.963817 -0.508077   2.66566 186 186 186
-0.810506 -0.523744   2.77353 82 82 82
-0.135478 -0.526878   2.30954 181 180 178
 -1.11921 -0.440674   2.32656 35 35 35
-0.780977 -0.534364    2.7078 112 112 110
 -1.12737 -0.497017    2.5977 46 47 49
3.27034 2.85236 2.08619 255 255 220
-0.639766 -0.573334    2.6339 38 38 38
-0.912629 -0.480361   2.49904 20 24 25
 0.512952 -0.688297   2.93782 218 222 221
-0.146617 -0.714135   2.92193 126 127 122
  1.15924 -0.395315   2.88491 58 57 53
-0.433962 -0.276783   2.15501 203 203 203
 0.424085 -0.695284   2.84491 202 207 211
-0.0410532  -0.603105    2.45895 202 207 211
 1.88215 0.281132  2.42823 24 20 17
-0.82642 -0.51513  2.80198 213 215 214
-0.275681 -0.653083   2.71247 64 66 65
-1.27178 0.167549  1.99378 66 62 59
-0.0952787  -0.444904    2.22658 146 146 144
   1.43642 -0.0819884    2.58972 88 85 80
 -1.03008 -0.488109   2.49261 29 29 29
-0.821823 -0.516971    2.6188 30 31 33
-0.000519889    -0.680368      3.14566 30 34 35
 1.87969 0.322771  2.40511 96 82 71
 -1.07732 -0.495707    2.6761 112 108 107
-0.937874 -0.475566   2.45555 26 27 29
 0.414415 -0.588383   3.12807 221 217 214
-0.57129 0.169448  2.07728 149 146 139
-0.226398 -0.462556   2.20714 126 126 124
3.39113 5.16296 1.98753 255 255 248
-0.547747 -0.566147   2.61782 56 56 56
-0.676093 -0.190867   2.22977 172 174 171
 3.5252 5.03161 1.42137 255 251 215
-0.775217 -0.474212   2.41513 27 27 25
 0.114841 -0.647919   2.58914 210 210 210
0.260276 -0.67821   2.8063 190 194 197
-0.553192 -0.612995   2.90641 23 23 21
-0.916811 -0.519416   2.73043 37 38 42
  1.03748 -0.452413   3.00153 41 43 42
 0.377715 0.0319842   2.26058 97 74 66
 0.305339 -0.607072   3.13315 78 78 76
-0.842683   -0.5228   2.60416 27 28 30
-0.334482 -0.695236    2.8022 24 26 25
 0.724161 -0.328237   2.39839 45 36 29
  1.00338 -0.485378   3.25712 161 165 168
-0.516983 -0.619382   2.84457 40 40 38
 0.118395 -0.649005   2.79883 211 212 216
-0.298442 -0.641025     2.695 104 108 109
3.50618 3.60569  1.4926 119 86 55
 0.851839 -0.477348    3.1875 20 22 21
-0.423824 -0.477993   2.31722 78 77 73
-0.837936 -0.447481   2.33468 27 26 24
 0.256722 -0.669901   2.67818 200 201 203
 0.149913 -0.671045   2.69731 222 221 217
 -0.77508 -0.526332   2.81752 54 53 49
 0.239485 -0.659238   2.62052 151 151 149
  1.10821 -0.367465   3.68902 38 38 38
 0.828542 -0.148958      2.33 186 162 134
 3.5494 4.60536 1.43179 78 64 53
 -0.31071 -0.519324   2.40529 216 218 217
-0.879009 -0.530779   2.68424 34 35 37
3.34618 3.65585 2.02885 255 255 228
  1.49602 -0.338436    2.8338 21 21 21
-1.09387 -0.49429  2.69252 39 39 39
-0.945366 -0.295515   2.23028 108 101 93
-0.738426 -0.474696   2.45475 22 24 23
-0.940631 -0.508191   2.77255 33 34 36
   4.10273    11.4089 0.00210585 255 234 203
   1.3126 -0.456239   2.92857 23 25 24
3.21131 1.80713  1.8049 250 216 178
-0.101651 -0.418784   2.17001 85 82 77
  1.20564 -0.300584   2.85216 103 104 106
-0.758144 -0.539762   2.75532 29 31 30
  0.87823 -0.444108   3.07675 26 23 18
3.59492 4.56744 1.48368 238 204 169
-0.604791 -0.535533   2.49366 162 164 163
 -1.07322 -0.488889   2.70928 36 37 41
-0.721883  0.841262   1.92687 86 85 80
 3.1296 1.66893 2.03638 72 54 44
-0.334505 -0.446106   2.19071 94 93 89
  1.29215 -0.470347   3.09917 32 32 34
-0.930115 0.0939213   2.19164 129 127 115
-1.31083 0.161437  1.97889 44 43 38
 0.389365 -0.142133   2.16521 32 34 33
 0.669997 -0.472049   3.24701 169 164 160
-0.232588 -0.714824   2.83853 106 110 111
-0.0453445  -0.586894    2.43139 129 132 137
 -0.51709 -0.589214   2.66273 129 130 132
-0.883002 -0.514888   2.78345 88 90 89
-0.991588 -0.485444   2.48711 81 83 82
-0.814597 -0.513581    2.4768 29 29 27
 -0.36087 -0.454555   2.22348 73 69 68
-0.747105 -0.249054   2.26266 163 147 131
-0.456039   -0.6485   2.83326 29 30 32
-0.321433 -0.682378   3.03149 26 28 27
 0.214684 -0.667439   2.79754 185 184 182
-0.278044 -0.695511    3.0114 31 33 32
-0.541591 -0.080196   2.14931 208 201 195
3.24135  2.7282 2.13901 149 121 99
  1.24623 -0.261735   2.78334 41 37 34
 0.502775 -0.625524   2.61999 171 171 171
 0.392696 -0.627509   2.67716 183 182 178
 0.440194 -0.540387   3.45788 167 168 170
3.07297  1.6111 2.11416 221 173 133
  1.22461 -0.298563   2.83477 25 25 27
  3.283 3.07794 1.96298 255 245 208
3.35204 2.48927 1.75943 86 60 43
-0.308872 -0.671441   2.74941 126 130 131
3.24501 3.26476 2.23276 98 88 76
-0.492014 -0.543586   2.57467 95 97 94
 0.856652 -0.479199    3.2882 68 72 75
  1.06766 -0.485311   3.14038 166 170 173
0.0743168 -0.658159   2.71106 139 139 141
-1.05548  0.18717  2.09779 95 87 76
3.06117 1.89531 2.22991 226 179 137
 1.19302 -0.48231  3.32655 74 76 75
-0.987547 -0.502898   2.62174 32 34 33
3.73912  5.7542 1.14285 255 255 230
-0.0790473  -0.121141    1.91073 209 210 205
-0.258233 -0.511115   2.32093 30 30 30
-0.299098 -0.454711   2.22155 16 20 23
  1.06422 -0.502214   3.30641 43 45 44
  -0.6762 -0.418297   2.33652 22 22 20
 0.404661 -0.570146   2.55849 21 25 28
 -1.28895 -0.421911   2.37473 35 36 38
  1.08086 -0.484587   3.05538 47 48 50
 -1.09813 -0.490124   2.52905 46 45 41
 0.450896 -0.614426   2.56505 255 252 230
-0.961772 -0.470702   2.46025 81 85 84
-0.725868 -0.526352   2.60332 137 139 138
-0.223424  -0.39413    2.1142 48 44 41
3.28823 2.54426  1.8346 255 239 192
-0.818354 -0.504148   2.52443 22 22 22
 -0.55579 -0.580045   2.65163 41 43 42
-0.403619 -0.490769   2.34294 110 109 107
3.71497 8.95144 1.03221 255 255 221
3.37681 3.16645 1.65184 255 255 241
3.60853 4.36632 1.54491 217 185 147
-0.743722 -0.296748   2.27456 63 62 60
3.10365 1.32534 1.86664 133 104 86
3.31902 2.93775 1.83245 251 225 192
2.90684 1.13025 2.36516 39 23 10
3.05708 1.26694 1.78839 255 220 182
 0.118839 -0.646921   3.27098 41 43 42
 0.487363 -0.621336   2.48491 51 56 59
 0.487589 -0.623023   2.48458 51 56 59
-0.582108 -0.580472   2.68769 30 32 31
3.35455 2.78342 1.58721 237 216 187
 0.519681 -0.279844   2.22812 171 164 156
 0.318263 -0.691338   2.77742 233 240 246
3.35951 3.58845 1.97492 186 156 128
0.0034021 -0.647735   2.95986 109 109 109
 0.824453 -0.432081   3.75541 35 37 36
-0.206264 -0.472201   2.19541 209 209 207
  0.91225 -0.435516   3.09822 148 139 130
 0.309161 -0.685722   2.85607 165 164 162
3.08502 1.25469 1.88205 199 145 107
 0.131295 -0.658447   2.64413 119 120 122
 -1.22906 -0.230336   2.10023 90 90 88
-0.0401527  -0.337167    2.08098 139 138 133
-0.359249 -0.480045   2.54934 156 157 161
   1.26403 -0.0145993     2.4982 111 110 106
-0.361468 -0.701104    2.9217 47 48 42
  1.30718 -0.378445   2.77606 122 122 122
0.00682144  -0.664937    3.06724 120 124 125
-0.391231 -0.461151    2.2011 94 88 88
-0.67691 0.125508  2.08608 94 91 86
  1.33764 -0.467068   2.93579 137 137 137
 0.352704 -0.576764   3.11232 198 194 191
 3.82847  7.15409 0.957529 255 248 220
 0.166009 -0.645392   3.29757 31 33 32
 3.79236  9.00351 0.834778 255 255 248
-0.837945  0.312725   2.03325 187 177 165
3.01218 2.09137 2.26639 40 35 29
  1.11544 -0.479356      3.05 199 200 202
  1.11301 -0.482064   3.04805 199 200 202
-0.057989 -0.682181   3.10891 35 36 38
 0.500754 -0.671553   2.77212 224 224 224
 0.384675 -0.499209   2.50998 203 205 202
-0.279788 -0.413747   2.13651 58 57 55
  1.21932 -0.406086   2.87885 124 126 123
-0.163737 -0.235661   2.01207 173 173 173
-0.280358 -0.455108     2.226 207 203 192
  -0.6688 -0.544377   2.56035 27 27 25
-0.0230102   -0.58811     2.4198 193 198 202
   1.0062 -0.388702   3.66648 42 41 39
  1.22971 0.0428203   2.36485 161 143 129
-0.795131  -0.47561   2.41224 71 71 71
 0.408317 -0.687822    2.8578 163 166 171
3.17447 1.56606 1.75794 255 221 179
-0.734516 -0.546594   2.78292 28 28 28
-0.0199948  -0.637693    2.51749 178 179 183
-0.0201863  -0.637486    2.51728 178 179 183
0.0511039 -0.642667   2.50472 209 213 216
-0.317026 -0.482626   2.62501 62 64 63
3.58783 5.90108 1.61134 253 239 190
-0.514034  0.289065   2.00509 125 111 100
 0.532436 -0.694892   2.94672 117 112 109
 3.0843 1.28582 1.93624 253 239 190
  1.21571 -0.236162   2.72064 165 155 146
0.0790911 -0.192255   1.95784 165 157 144
  1.25493 -0.350616   2.84605 119 121 120
3.29796 2.87975 1.96757 255 255 226
-5.57315e-05    -0.659777      2.99115 141 145 144
-0.670691 -0.579917   2.71033 27 29 28
3.36388 2.56521 1.65662 190 156 128
2.95886  1.3513 2.28936 54 40 29
0.875593 0.286013  2.18802 31 28 23
 0.178897 -0.665155   2.76613 195 195 195
-0.516991 -0.293891   2.28731 182 183 185
-0.475235 -0.397234   2.43213 43 45 44
  1.12388 -0.463417   3.03668 62 64 63
-0.643321 -0.597018   2.65896 192 194 191
-0.421373 -0.662911   2.78142 26 30 31
-0.120805 -0.637772   2.77293 192 191 189
-0.165423 -0.388962   2.12619 121 109 97
  1.25809 -0.462744   3.29384 130 134 135
-0.872759 -0.462089   2.41988 20 20 22
-0.109343 -0.683943   3.06705 47 49 48
3.18944 2.60501 2.19402 252 214 165
3.20909 2.97908 2.29323 237 195 157
 0.440223 -0.588417   2.59711 24 23 29
-0.402534 -0.658142   2.75643 33 37 38
 0.240434 -0.673822   2.84699 243 244 246
  1.55118 -0.243152   2.76392 30 31 26
  0.33426 -0.686498   2.84251 251 253 252
2.99618 1.14225 2.08363 158 127 99
-0.0719224  -0.312757    2.04713 128 130 127
3.12644 1.57578 1.97541 70 54 39
-1.05496 -0.51431  2.62368 34 36 35
3.21906 1.68872  1.9407 232 183 142
3.51636 5.24129 1.69713 214 179 141
-0.877664  0.134093   2.17543 125 118 108
-0.259545 -0.512461   2.31996 57 56 54
 0.248764 -0.674963   2.77293 228 232 233
-0.0672469   -0.63553    2.54991 223 227 230
 0.183213 -0.672734   2.63392 203 204 206
3.43285 4.26073  1.9667 255 243 217
 -0.21804 -0.589246   2.58288 231 239 242
3.03009 1.16104 1.95414 255 220 177
3.12505 1.39008 1.85205 240 198 160
 0.403332 -0.537147   3.46945 138 140 139
 3.6141 6.17504 1.51595 252 255 255
0.144756 -0.62802  2.92067 159 156 151
-0.303477 -0.496978   2.56947 57 61 64
3.34622 3.07413 1.72664 174 143 114
-0.426093 -0.564903   2.62156 55 57 56
 0.103213 -0.553146   2.49998 20 20 20
3.05085 2.13635 2.19625 85 73 61
-0.106841 -0.600885   2.46921 203 208 212
 3.86435  8.24804 0.911705 227 198 168
-0.531811 -0.577396   2.65321 65 65 65
-0.982041 -0.498967   2.70774 30 31 35
 0.516446 -0.677172   2.90301 100 93 87
 0.372358 -0.488828   2.52367 27 28 30
 3.85591  7.55896 0.915094 247 218 186
 0.893609 -0.437129   3.16784 37 34 27
-0.348921 -0.611815   2.65885 73 73 73
 3.5854 5.17737 1.29958 123 98 78
3.45891  4.9257 1.75566 104 81 63
3.36914 2.32334 1.64238 253 215 178
-1.09668 -0.48596  2.58444 144 146 145
3.29535 3.23756 1.90559 141 105 79
-0.556244 -0.214666   2.22473 215 210 206
-0.221274 -0.477061   2.23147 185 186 181
-0.172222 -0.554658   2.43093 237 242 245
-0.956093 -0.310413   2.23929 32 32 30
