ply
format ascii 1.0
element vertex 1211
property float x
property float y
property float z
property uchar red
property uchar green
property uchar blue
end_header
  -1.17299 -0.0946041    2.15502 118 117 122
-1.14749 0.643432  2.20843 151 139 123
0.359728 0.761905  2.40424 25 22 17
 1.00178 0.471614  2.41999 41 36 30
0.292629 0.247649  2.07417 187 184 177
-0.668118   0.56331   2.27072 222 212 200
-0.352914   0.51572   2.26101 168 155 139
  1.39359 -0.194374   2.75007 103 103 101
-0.706377  0.636337   2.30615 99 80 63
-0.733022   0.58598   2.27534 218 203 182
  0.625765 -0.0113131    2.23534 42 37 34
0.382527 0.489479  2.19032 193 172 145
 1.1701 1.01923 2.59494 250 216 189
 1.23628 0.258296  2.48001 162 140 126
-0.607893  0.374838   2.22946 205 195 186
0.430904  0.27734  2.12893 167 152 133
0.754581 0.484956  2.41691 31 27 24
-0.874661  0.884939     2.381 148 135 119
 -1.04033 -0.177433   2.20318 87 87 87
-0.990495  0.572558   2.24455 106 96 86
0.163023 0.878112  2.30008 57 54 47
-0.173045   0.54333   2.24484 210 190 165
0.0267446  0.472686   2.09993 235 214 185
0.680283   0.1655  2.30814 46 37 30
 2.53469 -1.58107  4.16841 176 169 151
-0.114908  0.938672    2.3964 35 30 26
-0.437395  0.338535   2.22303 50 49 47
-0.807903  0.897523   2.38974 39 36 31
 1.14782 0.130411  2.56354 48 39 30
-0.521688  0.555884   2.27142 189 176 159
-1.02496 0.712628  2.27414 215 202 183
-0.608118  0.175964   2.29579 172 155 145
-0.741646  0.838486   2.40616 148 135 118
-0.0543191   0.650855    2.34146 236 193 161
0.234494  0.30755  2.04503 211 196 177
-0.843243  0.275061    2.3035 85 80 74
-0.93039 0.776024  2.32752 112 100 86
-0.00511408   0.0603575      1.9949 228 225 220
-0.514063  0.447949   2.21823 101 93 90
-0.893361   0.28486   2.29074 144 131 115
 0.516525 -0.398074   2.35937 38 42 43
  2.5497 -2.88607  6.28636 255 247 221
-1.00425 0.626829  2.25626 111 98 82
-0.743123 -0.222359   2.26731 116 109 103
 0.91212 0.372133   2.3982 41 40 38
-0.810231 -0.158661   2.31317 64 53 49
 0.91031 0.239599  2.42874 118 102 89
-0.479147  0.434052    2.2156 224 198 181
-0.194788  0.157638   2.05158 131 130 126
-0.263837  0.453467    2.2065 113 97 82
-0.318033  0.312402   2.19442 20 22 21
 2.47351 -2.08594  5.54738 137 125 109
-1.17636 0.491605  2.18965 154 146 135
0.189484 0.367067   2.0644 201 179 156
-0.735975 -0.254887   2.25235 43 41 42
-0.608628  0.494918   2.27095 92 78 65
-0.722033 0.0821798   2.33484 73 70 65
0.982787 0.737292  2.45558 48 33 26
0.185984 0.717599  2.37138 43 29 26
 0.424126 -0.609199   2.52734 114 113 109
-0.544561  0.363737   2.22694 224 205 188
   -0.278896 -9.28961e-06      2.10923 219 203 188
-1.19493 0.616991  2.18404 132 120 106
 -0.98167 -0.252512   2.16665 140 126 123
0.426026 0.328275  2.14055 162 145 127
-1.17261 0.443829  2.19803 186 177 162
-1.05091 0.778852  2.30134 211 195 172
-0.188993  0.563896   2.26037 180 158 135
-0.872508 -0.186626   2.25408 136 131 125
 0.528254 -0.213455   2.29048 201 206 212
 1.34888 0.563994  2.52563 215 177 154
0.949002 0.674774  2.43304 44 40 31
-0.678197  0.743679   2.37474 197 176 155
-0.311544   0.41524   2.21025 134 118 102
-1.06613 0.712251  2.26402 112 99 82
-0.98482  0.78155  2.31451 163 147 131
  0.522373 0.00584415    2.20856 161 153 140
 -1.1651 0.388849  2.20583 179 165 152
0.109428 0.545205  2.16877 195 161 136
-0.957781  0.794813   2.32757 89 76 60
0.770769 0.441214  2.41826 48 34 31
0.0512099   0.13532   1.98984 122 119 114
-1.07849 0.708701  2.25869 208 192 169
 1.16731 0.901318  2.54311 57 47 38
-0.609436  0.579488   2.27513 89 73 57
-0.0402606   0.910915    2.37701 47 38 31
 -0.20395 0.0905647   2.06269 134 125 118
 1.19191 0.890494  2.54842 71 57 48
 1.15247 0.753753  2.48829 173 152 135
0.147364 0.505039  2.14211 130 104 79
0.971738 0.386989   2.4073 25 25 23
0.320867 0.283254  2.08181 104 90 79
0.445315 0.856184  2.35956 93 80 64
 1.27732 0.604625  2.51433 30 25 21
 2.49731 -2.91666  6.52759 237 228 211
0.602904  0.96319  2.47497 21 18 13
-0.158764  0.745822   2.38229 125 108 92
-1.26407 0.125418  2.25494 69 68 66
-1.11768 0.378306  2.22704 126 116 104
 1.24236 0.366025  2.48263 142 123 106
  -1.1033 0.0605973   2.33622 130 127 122
-1.00119 0.503051  2.24193 187 177 165
-0.601064  0.841692   2.44214 112 99 83
0.431406 0.393435   2.1598 164 143 122
-0.926745   0.61951   2.26492 99 87 73
 2.55677 -2.09654  5.41796 117 108 93
-0.521867  0.853324   2.43683 198 183 162
 0.505417 -0.437087   2.39215 43 48 51
-1.20125 0.889244  2.32871 129 122 104
-0.67154 0.631207  2.31045 198 166 141
 1.13986 0.877697  2.52952 33 22 16
-0.3558 0.31397 2.19441 208 199 190
-0.188111 -0.107326   2.05296 151 144 136
-0.392506  0.351007   2.21861 130 112 98
0.281598 0.851208  2.33957 56 49 43
 -0.650138 -0.0527141    2.23782 153 148 144
 1.04908 0.795093  2.49203 233 202 182
-1.0986 0.41821 2.22233 197 187 175
-0.949962  0.693197    2.2843 202 185 167
-0.288924  0.609599   2.27986 58 51 43
-0.807921  0.206595   2.31273 115 95 86
 1.24933 0.924461  2.56539 57 43 30
0.857994  0.50838  2.38401 125 96 80
-0.239896 0.0511426   2.07476 162 145 135
 2.45584 -1.23864  4.30728 62 58 49
0.193622 0.760779  2.37497 82 65 55
-0.301499 0.0195724   2.12088 184 174 165
-0.862843 -0.313614   2.25458 39 43 46
 -0.8618 0.363667  2.27896 88 81 75
0.520686  0.26525  2.18071 149 132 112
-1.05237 0.799439  2.31017 217 201 178
-0.302679   0.46954   2.22501 186 167 150
0.264689 0.880547  2.32211 60 50 41
0.834654 0.334515  2.41192 40 30 28
  1.35863 -0.191696   2.76908 99 101 98
0.776084 0.155063  2.34918 85 72 55
0.261444 0.300461  2.05035 188 171 153
0.663146 0.748809  2.34267 40 29 23
-0.52387 0.367114  2.22378 190 168 155
-0.268291 -0.177885   2.08305 59 50 45
  -0.802 0.527021  2.27191 77 68 61
-0.655633  0.857802   2.44177 141 133 120
-1.07371 0.474433   2.2279 113 106 96
0.839765 0.474399  2.40708 194 156 137
-0.0509463   0.056067    2.00591 186 184 185
-0.946501  0.740116   2.30339 204 187 167
 0.513452 0.0488244   2.19808 118 111 95
-0.874003   0.51095   2.26595 153 141 127
-0.561689  0.453002   2.22786 120 103 93
0.493467 0.396848  2.19357 36 31 25
  -1.05763 -0.0934653     2.2331 84 83 79
-0.776009  0.441597   2.28159 99 90 81
-1.02881 0.132328  2.34414 72 69 64
0.675289  0.61463  2.36027 50 36 27
 2.48609 -2.16507  5.63012 255 255 243
 -1.0192 0.750978  2.29439 237 217 193
0.158325 0.471755   2.1233 201 177 151
0.150845  0.32583  2.02122 161 145 129
 -0.331664 -0.0657007    2.10535 168 150 138
-0.860451  0.859756   2.37744 161 144 124
-0.731589  0.966082   2.37045 83 80 75
-0.224373  0.107743   2.06692 28 27 33
-1.15016 0.737138  2.26228 197 181 156
0.953995 0.627959  2.43218 179 144 124
-0.94744 0.489258  2.25435 168 160 147
-0.298387  0.513789   2.24034 81 67 54
-0.207862 0.0751286   2.06202 209 200 195
-1.04437 0.668382  2.25393 179 167 145
-0.949932  0.160818   2.34376 47 46 41
0.351514 0.332412  2.09757 103 87 74
  1.3968 0.279804   2.5277 30 26 23
-0.703086  0.729519   2.36261 169 151 129
 1.02331 0.954735  2.57173 43 33 24
0.534343 0.283535  2.18962 162 138 114
0.280256 0.512257  2.17264 212 186 159
-1.07531 0.145419  2.32821 109 106 99
-0.890935  0.188508   2.32001 54 49 45
  0.46655 -0.298794   2.38318 113 103 93
  0.553395 -0.0422204    2.21754 140 127 118
 2.53222 -1.57601  4.18867 183 175 156
-0.332507 -0.126402   2.09346 137 117 110
0.629726  0.27113  2.26725 124 103 76
-0.728644 0.0656979   2.33227 188 145 126
-0.660235   0.72949   2.37188 210 188 164
 2.50562 -1.69625  4.68032 51 51 49
-0.165997 0.0815869   2.04596 229 220 211
  -1.179 0.425904  2.19537 71 63 52
0.700451 0.220842  2.30802 107 95 83
-0.747246 0.0680403   2.33349 71 66 62
-0.756633  0.317778   2.28249 194 156 135
  1.31131 -0.303982   2.81962 64 66 63
-0.458094  0.416943   2.20733 146 127 112
 -1.0809 0.160751  2.32299 64 60 57
-0.898233  0.301993   2.28805 113 103 93
-0.0434191  0.0993813    1.99394 136 136 138
-0.478921  0.707368   2.32257 80 62 42
0.0302948 0.0406869   1.99679 106 101 97
 -0.796499 -0.0918264    2.28654 178 172 160
-0.869352  0.696918     2.296 165 148 128
-0.757034  0.554259   2.27526 202 185 159
 1.34697 0.577346  2.53681 29 26 19
-1.00131 0.699532  2.27647 195 180 159
0.289645 0.284987  2.06688 183 176 166
-0.642688  0.686287   2.33533 222 191 163
 1.60754 0.115019  2.67907 112 113 108
-1.07495 0.926386  2.29867 36 35 31
-0.601133 -0.252608   2.26178 78 77 75
-0.896688  0.322998   2.28223 189 174 155
-0.425704  0.483319   2.21358 74 66 55
-0.492072  0.471194   2.21642 152 139 131
-0.891112  0.839535   2.36505 199 184 165
 -0.284793 -0.0138501    2.10549 173 156 140
-0.93267 0.675563  2.27996 215 200 177
-1.11543 0.554212  2.21192 124 118 106
0.486634 0.181007  2.16645 176 164 152
-1.12209 0.644189  2.21914 148 135 119
0.505129 0.364431  2.18832 95 80 61
0.896091 0.404862  2.41037 159 127 114
 2.50103 -2.05866   5.5724 255 255 243
 2.53938 -1.94428  5.04503 255 255 238
-1.20317 0.326631  2.20026 172 162 150
-1.10392 0.321313  2.24215 182 175 159
0.116035 0.173475   1.9977 111 107 98
-1.11441 0.515963  2.21204 125 117 104
-0.873626 -0.163556   2.28562 121 108 100
  -1.0831 0.0855359   2.34456 32 31 29
-0.307455  0.799355   2.39672 56 46 36
-1.21246 0.367906  2.18304 95 86 77
0.0115263    0.4759   2.10277 140 118 94
-0.302472  0.405624   2.20689 59 50 43
0.128228 0.633676   2.2919 219 175 148
0.214695 0.312438   2.0413 187 169 149
 0.843669 0.0756079   2.37477 27 22 19
-1.21496 0.163813  2.27881 68 67 65
   1.45513 -0.0695355    2.71352 76 71 67
-0.696243  0.674705   2.33437 247 213 188
0.237902 0.782214  2.37722 81 73 62
-0.366994  0.322256    2.1973 92 89 84
0.429123 0.365712  2.14784 188 167 146
 2.54742 -2.04099  5.31007 255 254 232
-0.0616547   0.934657    2.38174 62 55 49
0.812013   1.0115  2.57207 36 33 26
-0.940936  0.289654   2.26743 85 78 72
-0.683841 0.0711521   2.33315 195 150 127
-0.894182  0.398784   2.26726 172 160 144
-0.819902 -0.195626   2.26554 63 59 56
-0.808693  0.680837   2.30041 236 214 191
-0.618094   0.56017    2.2739 95 83 71
  1.33268 -0.281046   2.82183 35 35 33
0.0604754  0.838641   2.40813 33 28 22
-1.05982 0.741517  2.27732 113 97 81
0.0794463  0.393276   2.05458 95 83 67
-0.923727  0.314472   2.27211 129 116 100
-0.157936  0.123232   2.04109 238 237 235
-0.199759  0.504049   2.22111 69 60 53
0.580748 0.760428  2.34471 169 147 126
0.0701391   0.16526    1.9913 156 156 148
 1.19094 0.763662  2.50037 203 181 160
-0.302702  0.672812   2.32478 32 23 18
 -0.75291 -0.251013   2.24853 83 82 80
-0.450588  0.394599    2.2071 190 171 154
0.0499819  0.846482   2.40818 239 197 173
 0.24778 0.544814  2.19386 77 58 41
 0.15416 0.459265   2.1163 121 103 83
   1.47543 -0.0940677    2.70755 50 49 45
 -1.1274 0.289583  2.24691 107 98 89
-0.176969 -0.197852   2.08053 57 56 52
-0.656727  0.260376   2.24485 61 56 52
0.724487 0.439509  2.44453 41 28 20
-1.10039 0.640065  2.22484 208 193 172
0.0937977  0.775964   2.39469 255 219 197
-1.18134 0.641983  2.20295 83 75 64
-0.689065  0.498498   2.27329 82 73 68
-0.741835  0.670557   2.32288 115 94 77
-0.295974 -0.171087   2.08533 58 48 46
 2.56145 -2.06644  5.13925 101 89 73
-0.832467  0.557901   2.27441 168 151 131
0.236092 0.935104  2.33536 35 28 20
 0.464085 0.0825704   2.18357 129 120 111
  2.5402 -2.91602  6.35309 255 252 226
-0.475469  0.983554   2.39949 25 21 20
0.873488 0.432179  2.41183 44 35 30
 0.31133 0.472518  2.15311 206 185 158
-0.563538  0.588224   2.27914 187 169 147
-0.883652  0.460228   2.26216 161 151 139
 -1.04065 0.0623016   2.35864 104 103 99
-0.207618 -0.085132   2.05228 103 94 87
-0.393247  0.330004   2.20676 232 215 195
0.509368 0.070601  2.19365 173 163 153
-1.22832 0.152193   2.2709 81 80 78
 1.20409 0.304122  2.48746 56 51 47
-0.714255  0.451534   2.28782 180 171 154
-0.937136  0.449903   2.25323 164 156 143
 1.23135 0.378012  2.48608 35 30 26
0.446363 0.762262  2.39146 124 105 90
-0.407643   0.95636   2.34745 190 173 157
-0.559803  0.551439   2.27287 206 189 173
-0.629912  0.297187   2.23729 190 182 171
 0.87522 0.134962  2.39091 164 144 119
-0.962219  0.243957   2.28902 156 152 143
 1.21259 0.882179  2.55224 59 47 35
-0.792025 -0.191899   2.26431 130 117 111
-0.715732 -0.225757   2.26968 119 109 107
-0.737034  0.698014   2.33459 130 112 90
0.174588 0.859752  2.30316 146 130 115
   1.61979 -0.0383272    2.72434 104 103 99
 2.56582 -1.76534  4.39346 93 84 69
-1.12114  0.27612  2.25201 123 114 105
 0.15168 0.932392  2.28176 29 20 13
-0.956611  0.391956      2.25 119 109 99
-1.02767 0.524693  2.23644 142 136 124
0.272883 0.359926  2.05987 113 97 81
-0.520457  0.611638   2.28024 63 54 47
1.02629 0.87522 2.54308 162 139 121
0.291347 0.315801  2.06371 197 188 173
-1.22047  0.29287  2.19081 115 105 95
-0.977048  0.688498    2.2809 159 142 122
-1.10637 0.334183  2.23824 104 94 84
-0.922508 -0.279673   2.22318 41 42 46
 1.28331 0.134754  2.60852 133 125 114
-0.105086 -0.173798    2.0933 89 85 82
-0.583104  0.381723   2.22816 249 228 211
-0.662241 -0.339758   2.26369 39 39 37
-0.735737   0.60168   2.28411 208 191 173
-0.736659  0.532508   2.26855 228 217 199
-0.988334 -0.102323   2.29083 140 132 121
-1.05846  0.41951  2.23654 178 171 155
-0.84468 0.297714  2.29985 101 94 86
0.734522 0.495591  2.41025 76 69 61
0.845912 0.316317  2.41264 157 136 117
  -0.75849 -0.0513279    2.25651 124 119 113
-0.926193  0.347512   2.26626 88 79 70
0.0613185  0.542419   2.15164 128 103 83
  1.59505 -0.192224   2.75827 107 107 105
0.544342 0.312965  2.20319 82 66 51
-0.559865  0.570618   2.27674 152 137 118
 0.63248 0.767771  2.34594 158 135 117
-0.729633  0.437623   2.28362 125 110 91
-0.0667861   0.845654    2.44311 131 98 79
-0.852444  0.284763   2.29599 149 141 130
-0.364142  0.485313   2.24582 145 137 124
-0.424023  0.335852   2.22299 180 159 142
-1.10649 0.430062    2.221 93 83 74
-0.827444  0.463327   2.28044 221 208 189
-0.0417934 -0.0413024    2.01385 211 206 200
-0.281916  0.959785   2.37916 39 35 32
 -0.680037 -0.0462071     2.2352 92 91 87
0.953642 0.285923  2.39586 113 96 86
-1.13068 0.480552  2.20938 147 141 129
-0.178209  0.593826   2.27199 205 175 151
0.824257 0.555984  2.38464 56 45 39
 0.94401 0.247319   2.4557 76 66 57
 1.17101 0.495001  2.47665 36 31 27
0.712299 0.641914  2.36904 27 24 19
 2.56378 -1.92745  4.24502 255 255 239
 1.13594 0.467401  2.47243 19 20 15
-0.298042   0.56268   2.26898 146 138 125
0.867186 0.395976  2.40817 141 119 106
    1.59239 -0.00421463     2.72899 48 45 40
 1.25594 0.633633  2.51304 26 22 19
0.871928 0.477975  2.35785 191 147 120
-1.03535 0.746867  2.28323 230 210 185
0.227239  1.00265  2.32812 45 36 31
-0.836305  0.412291   2.28144 148 138 126
0.232412 0.456015  2.12421 165 141 117
-0.996335  0.375874   2.24542 90 83 73
-0.575437  0.641105   2.31325 114 93 76
0.0287402   1.00284   2.35915 167 154 145
-1.19318 0.654877  2.19963 142 129 112
-0.817182  0.616501    2.2819 156 139 119
0.652902 0.743857  2.34997 197 169 148
 0.597888 0.0587316   2.22413 170 153 135
-0.983922  0.557675   2.25114 141 129 117
-0.755512  0.967636   2.36159 77 73 70
-1.18428 0.345329  2.20332 198 186 172
  2.4605 -1.43211  4.39019 224 220 209
-0.619478  0.288127   2.24333 83 82 80
0.0526659  0.418667   2.07479 196 174 150
-1.00815 0.886574   2.3507 135 127 114
-0.845224  0.377425   2.27781 204 195 178
-0.276038 -0.210515   2.09235 74 65 60
-0.916145  0.520817    2.2573 133 121 107
-1.04154 0.535315  2.23104 70 66 57
   -0.71045 -0.00398421     2.23529 209 195 184
0.523369 0.308095  2.18974 82 65 47
-0.62603 0.576614  2.26718 74 57 47
  0.862951 -0.0091218    2.38148 156 141 122
-0.988078  0.409406   2.24419 185 177 164
-1.03866 0.437359  2.23499 176 162 149
 0.54105 0.740801  2.33789 214 178 154
-1.14873 0.854896  2.32099 201 186 165
-0.954728  0.495339   2.24827 107 97 87
-0.723337 -0.306388    2.2622 40 42 41
-1.06078 0.526729  2.22753 101 94 84
-0.134219 0.0130571   2.03232 211 206 200
0.226207  0.31779  2.04681 108 92 77
-1.19124  0.76136   2.2656 195 178 158
 -0.570467 -0.0518267    2.27079 96 92 89
 2.57459 -2.66996  5.91872 70 63 57
 2.60891 -1.91906  4.52119 93 82 64
0.0829676  0.762934   2.40128 249 204 175
-0.701856 -0.218316   2.26905 55 50 46
-0.715148  0.523498   2.27019 184 167 151
-1.10389  0.40628  2.22199 108 102 90
0.804174 0.144937  2.36464 117 100 80
-0.737835  0.988281    2.3693 70 70 68
1.20367 0.31745 2.48427 172 146 131
-0.355261 -0.110132   2.11075 133 119 118
-0.482093  0.692067   2.31227 175 154 135
-0.585068  0.338526   2.22981 156 149 139
-0.80303 0.549906  2.27398 90 78 66
-0.368741  0.342548   2.20471 138 125 109
0.726303 0.262343  2.32592 64 51 42
0.277175 0.833744  2.33834 57 50 44
0.528208  0.09814  2.19543 148 138 128
-1.06593  0.23994  2.28489 135 128 120
0.826754 0.467814  2.41149 52 39 33
  2.4348 -1.69609  4.82809 199 190 175
  -1.2029 0.0818688   2.29308 120 119 115
0.878654 0.389266   2.4044 46 37 30
 0.386977 -0.109437   2.48021 79 70 65
-0.756032   0.59437   2.27915 123 112 94
-0.612557  0.189111   2.29404 83 82 77
-0.963025  0.485274   2.24731 200 191 176
-0.0926649   0.921896     2.3952 150 132 118
-0.910911  -0.16244   2.25369 120 113 107
-0.954785  0.310511   2.26424 190 177 160
-0.974843  0.592978   2.25206 108 91 73
0.122747 0.245043  1.99854 158 151 141
0.961574   0.3139  2.37507 88 74 63
-0.631046  0.988778    2.3873 48 43 37
-1.20469 0.153749  2.28029 141 138 133
-0.812067 -0.192009    2.2732 116 111 105
-0.204204  0.050305   2.05924 215 206 201
 0.604476 0.0262316   2.22202 135 126 117
 0.44614 0.436091  2.19018 71 54 36
 -0.108155 0.00319413    2.02697 134 125 116
0.108953 0.533407  2.15702 90 62 40
-0.279686  0.551922   2.26408 194 174 150
 0.31327 0.430988  2.11995 186 161 139
 1.23297 0.790374  2.50553 58 45 36
-0.137692  0.291393    1.9382 229 222 212
-0.817056  0.455812   2.27938 74 62 50
-0.639183 -0.089437   2.24734 135 137 134
0.274894 0.874663  2.32313 105 91 80
 -1.21318 0.0562689   2.27678 91 87 84
-0.289884  0.672314   2.32362 53 40 31
0.828701 0.265551  2.39395 174 161 145
-1.06847 0.662759  2.23792 171 158 139
-0.670083   0.47371   2.27469 55 51 40
-0.0778255   0.987979    2.38167 32 22 20
 1.06504 0.804404  2.49307 219 183 157
-0.0417275  0.0855801    1.99793 212 211 207
0.840257 0.161518  2.37607 153 136 116
-0.0538078 -0.0362266    2.01566 150 145 142
 1.22509 0.663923  2.50307 39 31 28
0.778764 0.134917  2.34741 168 153 132
 0.90176 0.382256  2.40045 173 138 119
-1.12178 0.504086  2.20932 189 181 168
-0.723792  0.551434   2.27316 104 91 74
0.0898356    0.8798    2.3188 77 58 44
-1.04429 0.213661  2.29898 71 63 60
-0.270207  0.972233   2.38412 46 39 31
 0.497146 0.0796998   2.19263 124 114 104
-1.11638 0.526871  2.21237 168 160 147
0.295221 0.215573  2.09052 198 195 190
-0.95534 0.262225  2.28777 87 84 77
 2.58166 -2.60802  6.21509 255 245 223
-0.864794  0.289132   2.29771 79 72 64
-0.716188  0.832226   2.41229 40 28 14
0.242551 0.386072  2.06403 223 201 177
0.843704 0.612166  2.38487 45 36 31
 -1.27092 0.0815611   2.26968 106 106 104
-0.691305  0.524756   2.27288 199 181 161
 1.21512 0.231836  2.49971 100 93 85
0.104115 0.170219   1.9936 231 218 209
 -1.08005 -0.119767       2.2 100 99 97
-0.735072  0.976824    2.3646 29 28 24
0.331607 0.238619  2.09417 163 153 143
-0.578376  0.320598   2.23577 95 90 84
0.0781559  0.195629   1.99088 45 45 37
 2.41818 -1.17303  4.24535 199 188 168
   1.3007 0.0698298   2.62754 118 106 94
-0.782588  0.853256   2.39155 80 70 60
 0.566916 0.0586238   2.21715 151 141 129
-0.504483  0.968137   2.39824 74 71 66
  1.21335 0.0859013   2.58577 59 50 35
   2.542 -2.01021  5.35361 240 228 202
0.177994 0.728677   2.3746 203 168 148
-1.02705 0.279563  2.27503 86 82 73
-1.14394 0.497352  2.20702 148 141 131
 -0.26776 -0.222474   2.09105 235 211 199
 2.61817 -2.34329  5.42776 237 224 205
-1.02587 0.445482  2.23921 115 107 96
-0.805651  0.366996   2.28249 202 191 173
 -1.0813 0.337125    2.244 190 181 164
-0.306972  0.371503   2.19398 175 162 145
-1.11909  0.61208  2.21302 136 126 114
1.08213 0.65746 2.45259 46 37 32
 2.45713 -1.39255  4.41285 214 207 197
 -0.294389 -0.0930198    2.10014 53 47 47
-0.802573  0.820269   2.37153 64 52 40
 0.446693 -0.642185   2.55774 203 205 204
-1.05606 0.516901  2.23011 160 150 138
0.362279 0.746011  2.40389 61 58 53
0.135723 0.932408  2.27699 76 64 52
-0.267981 -0.071489   2.07099 91 86 82
  -1.18227 -0.0795063    2.15818 93 92 97
-0.0346288    0.71356    2.38336 174 137 111
-0.691692  0.798156   2.40379 78 62 47
 0.82994 0.218299  2.38153 160 147 130
0.212691 0.323502  2.04622 130 114 98
-0.779284 -0.315915   2.25364 36 35 40
 1.36048 0.369306  2.51565 47 36 30
-0.558964  0.403705    2.2267 100 91 84
-0.517607   0.87814   2.43739 111 104 94
0.844479 0.447219  2.41737 171 135 119
-0.63511 0.351248   2.2282 54 49 45
-0.960867  0.337443   2.25909 86 79 69
  -0.83371 -0.0533755    2.27677 165 157 146
-0.687117  0.338275   2.22214 193 186 178
0.707629 0.133443  2.30634 145 133 117
-0.221132 0.0960948   2.06836 201 192 187
2.47067 -1.1388 4.04025 109 97 85
   1.61008 -0.0319227      2.731 28 29 24
 1.11194 0.873201   2.5286 196 161 139
0.0699126  0.216669    1.9901 66 62 53
 1.20593 0.244217  2.49733 45 42 37
-0.186724 0.0833689   2.05471 209 200 195
0.591668 0.107153    2.226 99 85 72
-0.038088  0.934278   2.37586 32 27 21
-0.407565  0.387804   2.22075 54 47 41
-1.12355  0.76853  2.27614 237 216 195
0.111651 0.863941   2.3139 133 115 103
1.13303 1.02776 2.62575 33 14 7
-1.21036 0.266392  2.19924 168 156 144
-1.0851 0.46307 2.22947 185 177 164
-0.331017  0.451605   2.22589 111 93 79
-0.694696  0.281061   2.22609 239 228 222
0.539715  0.75135  2.33911 49 39 37
-0.519768  0.222907   2.25841 188 181 173
-0.488204  0.388886   2.21074 222 204 194
-1.11979 0.666182  2.22773 193 178 159
-0.154502 0.0163466   2.03693 164 164 156
0.777912 0.802161  2.41364 48 35 27
-0.605619 0.0156415   2.24864 76 72 69
0.251816 0.358891  2.05471 215 194 173
-0.738944 -0.295271    2.2583 38 38 40
 1.23526 0.569142  2.50976 27 23 20
-0.886683  0.371182   2.27435 91 82 73
-1.04678 0.765677   2.2932 88 72 59
 2.49451 -1.84277  4.71781 218 233 214
-0.851341  0.587496   2.27502 102 87 68
0.891038 0.203175  2.40385 141 128 112
-0.83741 0.852121  2.37869 172 155 135
0.0149966  0.485293   2.10784 213 191 168
 1.22789 0.426633  2.47885 46 36 26
0.0441725  0.923371   2.36317 45 36 29
-0.357191  0.477818   2.24341 149 135 122
0.135517 0.132773  1.99894 113 106 98
-1.16975 0.344401  2.21127 122 110 96
-0.906065  0.570535   2.26241 71 61 49
-1.02186 0.104063  2.35576 65 65 63
 1.23723 0.243458  2.49552 41 32 27
  1.4025 0.142745  2.58865 50 46 43
 1.10476 0.510812  2.45942 119 115 106
1.00656  0.6863 2.44825 32 31 27
0.0757057  0.117732   1.99867 62 61 57
 -1.02644 -0.148296   2.21702 107 106 104
0.0247034  0.901811   2.37675 87 78 71
0.257114 0.325851  2.04976 222 206 190
-1.03629   0.3458  2.25086 134 125 110
 -1.0622 0.483811  2.22871 179 171 158
-0.985529  0.708872   2.28398 143 127 111
-0.937508 -0.265011   2.21836 116 116 114
 0.170551 -0.517387   2.36135 40 35 29
0.299784 0.368541  2.07681 67 53 40
-0.279246 -0.139289   2.09426 49 45 42
    1.2924 -0.0462461    2.66603 178 165 149
0.795508 0.235019  2.36759 71 58 49
-0.695751  0.424424   2.26524 130 114 98
-0.0437772   0.166678     1.9522 41 40 38
-0.749117  0.565052   2.27514 70 61 52
 -1.01596 -0.151302   2.22442 76 75 73
0.110141 0.278625  2.00399 133 126 118
 2.62545 -2.56901  5.65818 134 121 102
-0.01305 0.459481  2.10105 202 175 148
 -1.17684 -0.124216   2.12568 57 60 69
   -1.18958 -0.00952413     2.28919 81 77 74
-1.02393 0.576863  2.23953 85 76 67
0.836235 0.449013  2.42214 35 25 23
-0.892954   0.45322   2.25836 108 99 90
 -1.13663 -0.138077    2.1274 71 72 77
0.675498 0.131535  2.28875 44 37 31
  0.344623 -0.0515118    2.49652 62 57 53
0.547459 0.187138  2.19803 138 122 107
-0.581423  0.882993   2.45165 31 30 26
0.961096 0.384635  2.41567 30 25 21
-1.03792 0.142748  2.33707 85 85 77
0.777106  0.20641  2.35225 81 67 54
0.0259029  0.910957   2.37184 41 34 28
-0.965036  0.315836   2.26109 127 114 105
 0.513874 -0.580818   2.52189 167 169 168
-1.16293 0.681971  2.22183 201 186 167
-1.05566 0.618852    2.239 88 74 63
-0.413052  0.923389   2.34608 38 35 28
 -0.99945 -0.390818   2.21449 49 52 61
-1.01228 0.292385  2.27595 90 83 73
-0.964593  0.937923    2.3331 89 90 84
0.431105 0.822101  2.38542 48 43 37
-0.00263577    0.943728      2.3633 26 25 21
-0.205673  0.969825   2.39529 32 27 24
-0.539029 -0.396866   2.33247 47 49 46
0.00819135   0.100374    1.98849 111 113 112
-0.612024  0.330881   2.23591 91 88 83
-0.847646  0.937217   2.35525 82 81 79
 -0.194387 -0.0854128    2.05647 158 149 140
 -1.28765 0.0883771   2.26008 136 134 135
 -0.357126 -0.0805532    2.10521 238 209 193
-1.07871 0.636401  2.22654 168 156 140
-0.847002  0.754585   2.33175 78 66 52
-0.721178 0.0686238   2.33129 187 149 130
-0.972413  0.512114    2.2451 109 103 89
0.901556 0.197109  2.40262 97 84 68
-0.122035 -0.199959   2.09431 124 123 119
-0.354956  0.347882   2.19641 196 184 170
 2.47831 -1.09362   3.9965 26 32 30
0.469471 0.395922  2.18085 78 61 43
-1.00739 0.801715  2.31864 100 87 70
 -0.151386 -0.0351532    2.05403 197 192 186
-1.06371  0.73198  2.26732 167 152 131
-1.12022 0.115817  2.32115 85 81 78
-1.18282 0.547997  2.19513 51 46 40
0.133976 0.457449  2.11482 130 112 92
 -0.736281 -0.0854633    2.26248 181 177 168
-0.536074  0.259906   2.25756 90 82 79
-0.550642 -0.138384   2.26456 110 109 107
0.252356 0.379794  2.06458 116 95 76
-1.18313 0.315185  2.21023 158 148 136
-0.26514   0.3611  2.17601 166 145 128
-0.772763  0.650973   2.29721 116 97 80
-0.00508372   -0.324579     2.18906 95 92 87
-1.02096 0.858614  2.33935 96 87 72
 1.14613 0.499879  2.48037 34 31 26
 -0.82728 -0.064473   2.28021 106 103 96
-1.0115 0.25173 2.28997 152 147 141
0.514785 0.748374  2.33343 94 81 72
-0.0987768  -0.161903    2.09084 130 129 125
-0.461916  0.462676   2.21024 109 98 92
 -0.244644 -0.0273571    2.07748 196 178 156
-0.425907  0.408305   2.21287 39 30 23
-0.693685  0.414936   2.26306 219 202 182
-0.228626 0.0555162   2.07183 210 197 188
-1.15144 0.070279  2.31651 126 123 118
-0.439598  0.383978    2.2066 105 93 79
-0.940483 -0.220094   2.20755 145 136 131
-0.706014  0.604175   2.29179 48 38 29
-0.320323 -0.147501   2.09083 85 72 66
 0.452545 -0.258207   2.41192 172 160 144
-0.0863123   0.961945     2.3766 26 21 15
 -1.01265 0.0379375   2.37705 110 110 108
-0.171618 -0.213311   2.08386 89 89 87
0.356288 0.323824  2.10262 94 80 69
-0.872315  0.144727   2.33729 69 64 60
0.918231 0.205312   2.4161 124 108 93
-0.778173  0.475049   2.28459 192 179 163
-0.953111  0.640935   2.26815 233 217 194
 1.30135 0.432473  2.50026 44 41 36
   -1.206 0.0385163   2.27533 124 121 116
 0.506264 -0.373789   2.36922 48 48 50
-0.813144  0.632728    2.2878 147 129 107
 1.22152 0.285026  2.48324 185 161 149
 2.45934 -1.73027  4.70203 194 180 167
0.759242 0.438131  2.42785 175 134 116
-1.27155 -0.23318  2.14822 77 86 101
 2.50233 -1.23582  4.13854 254 246 225
-0.0484058   0.159738    1.94989 126 115 109
 0.847649 0.0641419   2.36918 204 180 152
-0.491394  0.850657   2.43801 188 175 156
  2.499 -1.6423 4.68583 43 43 41
-0.969549 -0.297559   2.17221 35 38 43
 -0.227994 -0.0382259    2.07181 129 116 108
 -0.931924 -0.0752307     2.2946 145 137 126
0.839129   0.2706  2.39747 97 85 71
-1.21305 0.409103  2.17805 98 89 80
-0.831021  0.393585   2.28252 134 122 108
0.645782 0.102652  2.25522 127 109 89
 -0.901043 -0.0317601    2.29525 164 156 145
-0.404526 0.0618738   2.15737 155 146 141
 0.611539 -0.265998   2.31869 26 26 24
 1.20368 0.257601  2.49631 147 143 134
 2.50797 -2.89992  6.50858 239 231 212
 -0.261649 -0.0327583    2.07623 106 94 82
-0.279177 -0.167134   2.09374 56 48 45
-0.43925 0.510283  2.21354 203 186 166
0.115137 0.193996  1.99988 116 108 97
 0.83371 0.505274  2.40708 103 90 82
-0.29501 0.394732  2.20275 136 119 103
 -1.24122 0.0602462   2.27716 111 110 108
-0.911479  0.359808   2.26865 99 90 81
0.452338 0.459834  2.19944 205 179 154
-1.24601 0.105042  2.26758 117 116 112
 2.54146 -2.63878  6.39441 253 242 222
-0.788583 0.0864243   2.32971 74 63 59
  -0.17467 -0.0850226    2.05452 128 124 115
  1.32961 0.0420416    2.6437 147 137 125
0.174468 0.393663  2.07943 213 192 165
-0.920568  0.708783   2.29314 220 202 180
-0.0242438 -0.0363341    2.00862 150 147 142
-0.386813  0.426249   2.24157 62 53 44
 0.594851 -0.103688   2.24726 138 127 123
 0.459293 -0.309549    2.3821 35 37 36
 2.51559 -1.83611  4.71393 47 50 43
0.930241  0.37175  2.40465 128 105 91
0.750243 0.439539  2.43068 56 43 27
0.442002 0.316279  2.14069 191 173 153
  1.32942 -0.189542   2.78391 89 90 85
-0.637984 -0.360348   2.26248 106 106 104
 0.470858 -0.319689   2.37199 32 36 35
-0.255966 -0.180842   2.07668 249 227 216
 -0.552054 -0.0729537    2.26267 202 192 180
-0.688166  0.472151   2.27425 133 121 109
 -1.27864 -0.267275   2.15135 87 98 116
  -1.148 0.480026  2.20787 163 157 145
0.0699362 0.0702419   2.00395 184 172 158
-1.01458 0.614384  2.25136 116 101 82
-0.561508  0.375145    2.2275 114 101 92
-1.13803 0.617592   2.2064 88 78 68
  1.37454 0.0179802   2.65658 173 166 158
-1.05389  0.40303   2.2349 182 173 158
-0.67533 0.977771  2.38558 101 100 96
0.119252 0.463006  2.11672 212 186 161
-0.849182  0.692397   2.30031 229 211 189
-1.04243 0.545654  2.22994 150 144 132
 0.716122 -0.493397   2.24721 156 139 119
 1.21645 0.425702  2.48001 158 142 129
 0.571122 0.0690669   2.22037 32 23 16
0.151385 0.300832  2.01045 114 102 90
-0.877941  0.626092   2.27552 208 193 170
-0.529748   0.33419   2.22957 193 186 178
   1.1905 0.0729646   2.57923 53 45 34
0.0561513  0.790732   2.41821 116 83 66
-1.29868 0.028327   2.2788 109 108 104
 0.89083 0.138752  2.39523 76 63 47
0.439716 0.498302  2.22152 179 155 131
 1.30127 0.353353   2.5032 46 39 31
 -1.0824 0.517703  2.22203 85 76 67
-1.09031 0.640699  2.22361 84 72 58
  1.44716 -0.202478   2.72171 97 96 91
-1.21362 0.328932  2.19574 86 76 66
 -1.27171 0.0478939   2.27739 63 65 64
-0.230398 -0.206167   2.06629 209 186 172
-0.984782   0.37905   2.24818 98 91 81
-1.23018 0.257396  2.18338 158 146 132
-0.221643  0.489973   2.21765 134 115 98
 1.18114 0.255452  2.49429 40 39 34
0.379036 0.469592  2.17942 197 175 151
-0.177027 0.0230654   2.04659 220 215 209
-0.659869  0.334659   2.22077 178 175 170
-0.291755  0.364469   2.18954 165 148 132
 2.49517 -1.22182  4.05762 54 51 42
 -1.15615 -0.206544   2.15217 125 134 141
-0.885493  0.606488   2.27562 182 165 147
-0.673429 -0.231893   2.27075 80 76 73
0.687053 0.559876  2.37761 27 26 24
    1.489 -0.128774   2.71935 52 49 44
-0.983962 -0.369775    2.2129 44 51 59
-0.529559  0.492559   2.22831 213 185 164
-0.457159 0.0271343   2.19442 98 96 97
-1.24491 0.215522  2.19563 117 113 112
0.281536 0.339531  2.05705 72 60 48
  1.47459 -0.143824   2.71908 59 58 54
-0.104148  0.011864   2.02919 198 190 179
-0.863804  0.894064   2.38363 35 30 27
 2.57336 -2.47277  5.89702 117 102 83
-0.873486  0.634095   2.27762 119 104 85
-1.13348 0.430074  2.21279 128 120 107
-0.208258 -0.105893   2.05184 91 84 76
 0.59759 -0.15249  2.26258 92 85 79
-0.961567   0.36922   2.25419 192 182 170
 -1.1431 0.318605   2.2253 175 168 152
   0.91923 -0.0406171    2.41206 153 140 124
  0.537701 -0.0546952    2.21856 176 171 168
-0.00912761    0.128515     1.97919 64 64 64
0.645178 0.604789  2.35711 45 32 24
-0.689308  0.515023   2.27236 52 42 33
0.708138 0.269088  2.31864 62 52 43
-0.354119  0.590049    2.2463 104 88 75
-0.257469 -0.216507   2.08373 175 153 142
  1.66941 -0.064891   2.74196 96 97 92
 2.52098 -2.88195  6.54477 49 41 30
  -1.21549 -0.0328559    2.16206 128 124 121
-0.874243  0.356085   2.28178 180 171 162
2.57949 -2.6245 5.87523 255 255 239
0.0822207  0.179902   1.98971 195 182 165
-0.840475  0.696903   2.29939 161 145 122
-1.03968 0.420539  2.23302 183 173 161
-0.695797  0.533868   2.27486 63 49 36
-1.08693 0.401678  2.22853 108 100 89
-0.812426  0.358087   2.28378 98 91 83
 1.36201 0.446972  2.51196 32 23 14
0.440255  0.83478  2.37783 83 78 72
-0.777234  0.492694   2.28173 115 107 94
 0.79901 0.439205  2.41818 44 34 25
-0.572617  0.418781   2.22051 127 117 108
 -0.269658 -0.0388073    2.07268 58 47 43
-1.02862 0.763161  2.29729 129 117 101
-1.03017 0.338322  2.25324 159 151 138
-0.860207 -0.270427   2.23732 56 56 56
0.0592678  0.123964   1.99283 62 58 55
-0.0189355 0.00916812     2.0013 197 192 186
-0.888421  0.615596   2.27422 105 89 74
-1.13217 0.392108   2.2215 174 167 151
-1.19255 0.553122  2.18956 102 97 91
-1.05571 0.222911  2.29604 116 112 103
-0.950741  0.331936   2.25926 156 146 136
-1.09927 0.132085   2.3288 69 69 61
2.55639 -2.6808  6.3466 255 255 234
0.00106916   0.126554    1.98332 137 137 135
-1.15103  0.56536  2.19909 132 123 116
-0.466301  0.387709   2.20428 132 113 99
-0.107708 -0.143046   2.08628 101 97 96
-0.23437 0.463918    2.209 163 148 129
-0.562859  0.292902   2.24358 151 146 140
-0.893201  0.421304   2.26714 175 167 154
 -1.1215 0.103024  2.32406 116 113 108
0.432407  0.22773  2.13453 162 150 136
0.146771 0.191163  2.00419 202 185 169
 0.560085 0.0216865   2.21462 159 147 135
-0.148183  0.355114   1.97879 65 54 50
-0.111319  0.859988   2.46313 27 24 19
  0.60563 -0.288144   2.32621 43 43 43
0.325829 0.220635   2.0961 152 142 132
0.285369 0.224847  2.08677 51 46 43
-0.753873  0.603109   2.28014 185 173 149
0.136444 0.156825  1.99529 178 170 159
-0.164631 -0.158635   2.08084 110 106 103
-0.405506  0.319681   2.20747 86 77 72
0.588282  0.14214  2.22652 104 96 85
-0.424581  0.345818   2.22532 92 89 80
 -0.732471 -0.0234563    2.24717 195 181 172
 0.566342 -0.424546    2.3534 91 81 72
   0.085 0.199673  1.99437 154 144 132
0.499583 0.831458  2.37893 28 23 19
-0.822471 -0.288882   2.24863 41 42 46
0.547447 0.174976  2.19608 72 59 50
0.444372 0.269407   2.1338 92 78 67
0.341749 0.302247  2.09122 156 140 125
0.00382989   0.109525    1.98665 187 187 185
 0.549045 -0.148226   2.25535 208 216 219
-0.0269221  0.0297564    2.00601 203 200 193
 2.52798 -2.99265  6.43629 240 224 199
-0.717664 -0.279823   2.26364 40 40 40
-0.277358 -0.232056   2.09609 87 76 70
 -1.17078 -0.161883   2.13645 53 57 69
-0.675373 -0.277472   2.26512 50 46 45
-0.447826   0.47351   2.21036 71 62 55
-0.491475 -0.431444   2.36331 110 106 103
 -1.24314 -0.108796   2.12908 65 69 80
-1.04996 0.571241  2.23148 152 142 130
0.533232 0.115094   2.1956 92 80 66
 -0.683809 -0.0780944    2.24144 120 120 118
-0.564356  0.389421   2.22712 75 64 60
-0.746047  0.919704   2.38458 77 74 69
-0.601672 -0.242737   2.26127 70 66 63
 -0.978063 -0.0494347    2.29515 167 163 154
   0.494466 -0.00233615     2.21308 189 189 187
-0.0981082  -0.188676    2.10056 128 127 125
 0.449788 -0.284424    2.3914 135 121 108
-0.823313 -0.275978   2.24761 102 102 102
-0.454923  0.493131   2.21556 108 95 79
-0.962128 -0.223097    2.2138 107 102 99
 2.54729 -2.81674  6.40885 255 245 225
 -1.00725 -0.150213   2.22643 104 101 96
-0.532142  0.388192   2.22506 177 158 151
 -1.06337 -0.241003   2.15429 47 47 49
-0.709095 -0.253045   2.25902 38 36 37
-0.264385  0.498969   2.22782 145 124 105
-0.923666  -0.15644   2.25829 76 71 67
0.491699 0.110206  2.17947 151 144 136
 -0.897837 -0.0963483    2.29699 99 86 77
-1.04841 -0.15836  2.20969 66 66 66
-0.418182  0.414433   2.21774 105 97 86
0.0459905  0.144034   1.98882 69 68 63
-0.851562 -0.263275   2.23474 137 136 132
0.0120996  0.119702   1.98571 72 72 72
-0.652966  0.328395    2.2233 52 47 41
 0.576751 -0.186166   2.27108 135 128 122
-0.465716  0.368294   2.20831 200 182 170
0.475982 0.207925  2.15402 110 97 89
 -0.6011 0.506684  2.27052 162 146 131
-0.389206  0.471057   2.25197 54 49 43
-0.616427  0.126655   2.33315 66 66 66
-0.567936  0.219687   2.26646 207 197 187
-0.415972  0.384606   2.21866 150 141 126
  0.039821 -0.0701331    2.02675 188 188 188
 0.325097 -0.142295   2.51868 43 43 43
 0.624155 0.0231373   2.22885 53 48 44
0.00159409   0.117382    1.98513 76 76 78
 0.0526528 -0.0198024    2.01011 176 168 149
-0.645682  0.508412   2.27295 96 84 72
0.0961261 0.0603168   2.00909 124 117 107
-0.656188  0.279815   2.23164 103 93 84
-0.487871  0.357928    2.2142 99 90 85
-0.612272  0.434069   2.23336 179 151 130
-0.663524  0.171062   2.30735 114 97 89
-0.541489  0.308798   2.24276 71 68 63
-0.38103 0.480698  2.25005 90 85 79
-0.619882  0.274574   2.25374 149 150 145
 2.53328 -1.49049  4.11577 216 210 198
-0.31898 0.896013  2.38789 54 53 49
0.315185 0.750244  2.37277 35 34 30
0.854282 0.588562  2.38665 194 166 145
0.364653 0.961118  2.43955 23 24 19
-0.524218  0.793851   2.37788 191 173 149
 -1.1643 0.562432  2.19621 108 105 100
 -0.737276 -0.0473453    2.26794 168 159 154
0.631485 0.127429  2.22776 58 48 38
-0.734986  0.284709   2.23094 188 152 128
-0.735893  0.284406   2.23353 188 152 128
 0.539038 -0.193377   2.27903 159 163 166
-1.15889 0.112971  2.31823 95 92 87
 0.642796 -0.260778   2.29221 59 56 51
-0.868367  0.837529   2.36642 167 150 132
-0.249277  0.517167   2.23028 215 185 159
-0.736242 -0.284125   2.25621 63 63 63
 -0.961065 -0.0714393    2.31022 164 157 147
-1.08471 0.333588  2.24652 169 159 147
0.0163965  0.890477   2.48311 70 67 60
-0.390301 -0.204097   2.14483 156 148 145
-0.00740676    0.487571     2.15384 186 160 137
0.369576 0.424673  2.16247 93 74 57
-0.705823  0.497486   2.27079 104 97 87
-0.175102  0.803372   2.41647 216 193 162
-0.639462 -0.242152   2.25149 129 124 120
-0.39697 0.611314  2.27638 217 196 177
-0.48767  0.63906  2.28569 72 62 53
0.269573 0.919651  2.36284 73 63 54
0.844449  0.71261  2.43836 67 60 52
 2.41047 -1.51436   4.9647 216 195 164
 1.19275 0.410704   2.4717 75 65 55
0.0469221  0.410349   2.04642 148 128 104
-0.795812   0.16959   2.32868 206 158 135
0.217852 0.969645  2.33936 42 37 33
-0.612372 -0.354904   2.29519 30 30 28
-0.660774  0.231185   2.26951 94 89 83
  0.810356 -0.0419772    2.36049 174 159 140
0.0779184  0.806002   2.40435 187 141 115
-1.03369 0.737115  2.29032 182 165 147
-0.579627  0.953466   2.40709 101 98 91
-0.142248  0.393145   1.99587 126 108 94
-0.413156  0.824324   2.41452 184 164 139
   0.5343 -0.317245   2.33785 214 219 222
0.151922 0.897823  2.28708 53 49 46
-0.226492  0.957562   2.40462 22 21 17
-0.456833  0.877511   2.40546 48 46 47
0.984905 0.242554  2.42561 27 23 20
  -1.04986 -0.0905685    2.26145 71 67 64
 -1.0925 0.313206  2.25568 135 125 115
 2.45014 -1.65726  4.61851 58 58 56
-1.23441  0.58468  2.15508 89 81 70
 1.01951 0.660104  2.46822 34 33 29
0.909531 0.933602  2.53296 110 77 58
0.433766 0.256862  2.13786 150 137 121
0.306192 0.202107  2.10833 144 141 136
0.449768 0.201877  2.14637 158 146 134
-0.761297  0.890372   2.39434 61 58 53
  1.29088 0.0231369   2.63406 80 71 64
-0.570036  0.212523   2.26827 205 191 180
-0.543388  0.887793   2.42676 49 45 42
-0.879562 -0.272456   2.24412 83 85 84
 0.84908 0.987363  2.56257 46 41 35
-1.04745 -0.22062  2.19439 50 54 63
 -0.39437 -0.369821   2.24029 163 163 161
-0.643989  0.169296   2.30672 164 147 137
0.0130758  0.953259   2.36169 26 25 23
-0.165853   0.32624   1.98028 184 162 148
0.0824479  0.520888   2.14628 146 122 98
-0.379657  0.876744   2.44145 43 43 41
-0.303858   0.60647   2.28884 83 74 65
 0.486901 -0.341315   2.36627 47 48 43
1.00301 1.05386 2.61636 38 35 30
0.838147  1.12697  2.67181 34 31 26
-0.475778   1.00346   2.40585 35 35 33
-0.637032   0.36906   2.22045 79 74 70
-1.16018 0.865661  2.31694 175 162 143
0.653918 0.713629  2.36392 37 34 29
-0.106274  0.601236   2.27404 221 180 150
-0.708462 -0.200819   2.26906 122 113 106
-0.718729 -0.155813   2.30369 38 38 38
0.233241 0.673055  2.32382 217 170 140
0.511834 0.282767  2.18756 165 144 123
 1.18971 0.939785  2.58931 192 156 132
0.909974 0.999301  2.57511 44 40 37
-0.558843  0.419005   2.22361 129 116 108
  1.21973 0.0444419   2.60141 35 30 26
0.137613  1.02911  2.37865 39 34 30
0.0649674  0.460814   2.09207 117 103 90
1.09786 1.05712 2.63662 36 32 29
 1.03714 0.810247  2.51364 206 175 155
-0.124194  0.221022   1.94136 187 180 172
-0.0759918    0.14904    1.96521 172 172 174
 1.26118 0.756346  2.52424 26 25 21
 2.43575 -1.60839  4.84349 58 54 51
  -1.27554 -0.0912302     2.1182 60 66 78
0.0388777  0.996745   2.36008 26 22 19
-0.653382  0.411728   2.22827 223 201 178
 1.14601 0.606782  2.45678 41 37 34
-1.28443 0.857462   2.2818 41 33 30
 2.40432 -1.12806  4.15644 254 248 232
   0.465531 -0.00540794     2.24337 184 188 187
  1.38335 0.0377566   2.64693 138 125 116
-0.950159  0.950031   2.32714 74 73 69
0.488718   1.0823  2.57073 39 30 25
-0.574077  0.481075   2.24558 233 197 171
 2.53327 -1.42987  4.16106 255 248 235
-0.100861  0.910842   2.40916 152 134 122
-0.192991 0.0327919   2.05627 220 209 203
  -1.07318 -0.0365727     2.2854 160 152 141
0.617877 0.909742  2.45649 226 180 154
0.0891794 0.0650471    2.0043 172 164 153
-1.12764 0.861178  2.32031 145 130 111
-0.59226 0.374944  2.23028 152 139 131
-0.674636  0.839782   2.42911 118 106 90
 0.462093 -0.219854   2.45509 18 20 19
-0.0502986  -0.231107    2.13899 136 135 133
-0.176907  0.522656    2.2373 215 197 173
 2.50663 -1.61411  4.15504 255 253 241
1.01236 1.11325  2.6549 196 151 118
-1.12131 0.566949  2.21154 70 63 55
-0.856772 -0.389339   2.26834 33 38 41
0.422554 0.505225  2.21419 196 175 148
 2.43478 -1.36072  4.39877 220 213 203
0.0837875  0.295765   1.99213 33 30 25
-0.225644  0.169683   2.06671 17 21 24
 0.93527 0.394147  2.40129 32 28 25
0.797243 0.732771  2.40184 31 28 23
-0.571182  0.598554   2.28574 213 190 172
0.0206205 -0.113355   2.10016 155 156 158
 2.50006 -1.68225  5.19666 255 252 240
-0.941563  0.277631   2.27397 93 88 82
-0.298279  0.334513   2.18865 160 143 125
 1.04545 0.942545  2.56221 36 31 28
 0.17372 0.112802  2.02595 16 18 17
-0.521302  0.711759   2.34147 240 214 191
-0.943186 -0.227926   2.21192 133 123 121
  0.366927 -0.0359068    2.50818 12 12 12
0.252451 0.831952  2.32754 112 105 97
  1.0601 0.479539  2.45207 51 48 43
-0.148152 -0.249273   2.10312 152 153 155
0.453862 0.969004  2.43297 114 89 69
 2.62313 -2.95766  5.59342 255 250 222
-0.358517 -0.188513   2.11886 199 185 182
0.613221 0.107877   2.2297 67 60 52
-0.150913 0.0463823   2.04062 119 115 112
-1.06179 0.631275  2.23541 75 65 55
 0.951681 0.0264538   2.43255 102 81 62
0.0904535  0.219733   1.99665 118 110 97
  0.458255 -0.0983336    2.23839 67 60 54
-0.399569 -0.104858   2.15521 253 226 215
-0.839145  0.455905   2.27104 141 128 112
-0.77233 0.783984  2.36344 95 83 71
1.22973  0.8675  2.5635 40 37 32
-0.397401 0.0823785   2.16374 145 134 130
 0.600231 -0.019323   2.23293 133 121 109
 -1.05477 0.0308449   2.36602 111 110 106
 1.31523 0.154257  2.61921 127 126 121
-0.855361  0.141311   2.33251 56 53 46
1.30496 0.54398 2.53055 26 27 22
 0.041537 0.0888233   1.98638 171 161 149
 -0.541657 -0.0293288    2.25878 180 181 183
-0.973485  0.832935   2.33662 155 142 125
-1.17257 0.902035  2.32019 46 45 41
-0.211576 -0.720592    2.5811 125 131 129
0.138913 0.106189  2.01266 160 159 157
 2.46417 -2.04788  6.08537 93 83 74
-1.07193 0.776407  2.28615 135 119 104
 1.22452 0.739272  2.52272 20 21 16
-0.717493  0.222641   2.27352 83 78 74
-0.684422 -0.167701   2.30364 30 32 31
-0.504766   0.30605   2.24522 100 100 100
-0.503753   0.30622   2.24451 100 100 100
  -1.12015 -0.0327187    2.28316 135 126 117
0.662867 0.923461  2.47447 32 24 21
 -1.16625 -0.400643   2.24867 80 92 108
0.997088  0.33012  2.38249 41 36 32
 -0.790884 -0.0321133     2.2812 198 161 143
 -1.11202 -0.138496   2.17077 60 61 66
-0.939708  0.882361   2.36627 164 153 135
-0.612727  0.884558   2.43077 63 62 58
-0.649539  0.962706   2.39535 96 95 90
0.497206 0.462599  2.22183 76 59 43
-1.08343 0.507525  2.21552 107 100 90
 -1.21086 -0.108883   2.13395 65 68 77
 2.41132 -1.36125  4.83917 69 66 59
0.426805  1.12095  2.58413 26 25 21
0.77837 0.99992 2.56212 28 27 25
0.0462639   1.06418   2.42273 199 159 134
0.381693 0.322277  2.11097 140 123 107
-0.162184   0.59683   2.27548 215 179 153
  1.0238 0.768391  2.48722 45 40 36
 -1.17771 -0.150844   2.12787 62 69 79
0.603365 0.671448  2.34723 39 38 33
   1.51183 -0.0614461    2.71353 50 46 43
-0.753565  0.350399   2.27391 220 180 155
 2.56399 -2.13627  4.25778 95 95 87
 1.23505 0.272409  2.47731 177 154 138
0.283463 0.522248  2.18712 180 154 127
 2.61905 -2.67661  5.17767 125 113 99
-0.357463  0.908543   2.41387 60 59 55
  1.36623 -0.215509   2.71622 37 36 34
 -1.29181 -0.113536   2.09296 106 113 123
0.172062 0.656611  2.31478 188 147 117
-0.792928 -0.182724   2.27966 116 102 93
 1.02863 0.845182   2.5269 36 29 23
0.887705  0.49375  2.36643 165 125 100
-0.0649263  -0.333558    2.18481 192 193 195
-0.0662419  -0.337096    2.19287 192 193 195
2.58023  -2.692 4.89168 255 255 237
 2.62541 -2.76009  5.12357 121 112 97
-0.805379  0.874651   2.38912 142 129 113
 2.41889 -1.90469  5.75121 255 253 238
-1.26117 0.220997  2.18975 59 58 56
  -1.14976 -0.0477893    2.20722 78 74 71
0.900573 0.730394  2.44608 51 50 46
-0.711646  0.930171   2.38007 72 71 66
-0.190695  0.735932   2.37526 92 82 72
-0.78829 0.114851  2.31189 172 137 118
0.680169 0.571298  2.36135 81 76 72
0.123332 0.907163  2.28343 40 36 33
0.371563 0.723536  2.39969 24 23 19
 -1.0142 0.405174  2.24521 127 118 109
-1.18215 0.487559  2.18887 125 117 104
-0.230569   0.11311   2.07542 20 24 27
 2.50861 -1.66184  4.53761 255 255 248
-0.311999  0.982116    2.3752 102 79 63
 -0.90294 -0.422027   2.25708 65 69 68
-0.637815  0.633172   2.29859 211 177 149
-0.527465  0.674345   2.30828 223 201 177
-0.826804  0.226056   2.31145 184 149 130
0.872433 0.459622  2.38944 59 50 43
-1.27657 0.887323  2.32069 119 106 90
-0.429105  0.419064   2.21225 77 67 58
0.804763 0.465472  2.42317 215 174 152
 1.29727 0.110001  2.60809 62 53 44
0.764394 0.958434  2.53787 246 202 173
-1.14668 0.201357   2.2748 81 81 79
 -1.10431 0.0144672   2.34584 90 86 83
 2.47458 -1.89924  4.84757 241 239 226
-0.503552   0.92541   2.40112 89 86 79
0.429823 0.448476  2.18405 113 95 75
-0.94499 0.591952   2.2553 109 96 80
-1.14496 0.425201   2.2086 166 156 144
 0.6714 1.01018 2.49306 153 126 105
 -0.495911 -0.0796656    2.23283 185 180 176
 0.26874 0.445922   2.1102 126 105 84
 -1.30738 0.0496829   2.27359 71 71 71
-0.395586   0.52825   2.22235 157 140 124
 2.46856 -1.09255  3.96153 58 58 58
0.128769  0.73512  2.39111 255 213 184
0.949752 0.788002  2.47581 171 143 121
0.859815 0.550324  2.34832 166 122 97
-1.05143 0.594148  2.23006 166 153 137
0.445124 0.879143  2.36958 27 22 18
0.443079 0.878545  2.36699 27 22 18
  0.5213 0.346387  2.18625 174 156 134
1.13363 1.13869 2.68147 40 35 29
0.969085  0.72653  2.46513 150 118 97
-0.411161  0.287908   2.21769 113 102 96
  -1.12186 -0.0485785    2.23682 66 62 59
-0.15452 0.104676  2.04194 107 106 104
0.877729 0.610141  2.39615 29 25 22
0.871158 0.609403  2.38394 29 25 22
-0.249315  0.396782   2.19112 18 19 21
2.58753 -2.6505 5.36838 255 255 236
-1.13115  0.65168  2.22264 128 115 99
 0.60877 0.580566  2.37545 152 116 94
-0.0890765   -0.25892    2.15224 155 155 155
0.176227 0.399088  2.08298 192 170 146
 0.458232 0.0817748   2.19757 148 141 131
-0.503089 -0.332387   2.32401 81 83 82
-0.434378  0.676941   2.31427 207 183 157
-0.385436  0.939631   2.34405 23 22 20
2.40634 -2.1051 6.07673 233 223 198
0.898269 0.387302  2.40287 124 91 74
-0.618205 -0.194744   2.29411 139 121 107
 2.48504 -1.56336  4.71043 181 167 141
-1.01478 0.469176  2.23527 163 155 144
-0.495323  0.676158   2.29352 85 73 61
0.914841 0.889796  2.49766 25 20 16
-0.578108 0.0557201   2.30173 19 23 26
-0.538588 -0.448202   2.36429 85 87 86
 2.46335 -1.62173  4.70153 53 53 51
0.642059 0.234115  2.28201 67 54 46
  2.5806 -1.60216  4.11349 226 226 214
-1.07373 0.209833  2.30203 67 63 60
 -0.167511 -0.0317781    2.05244 169 164 158
-1.15009  0.57769   2.1992 107 99 86
 2.42341 -1.38048  4.51028 137 130 122
0.867827 0.640411  2.40067 218 172 146
-0.790597  0.819742   2.37488 106 92 79
-0.789955  0.819498   2.37298 106 92 79
0.886546 0.351225  2.42283 21 21 21
 -1.13206 -0.195752    2.1421 57 63 75
0.00860867  -0.313763    2.18839 181 181 181
-0.768329  0.595615   2.28199 94 82 66
 0.579434 0.0463698   2.21579 181 169 155
-0.481568  0.965543    2.3912 217 192 170
 1.25246 0.143687  2.59888 112 103 94
2.64558 -2.3092 4.99033 255 255 246
 0.632412 0.0832516   2.24959 66 56 47
