ply
format ascii 1.0
element vertex 1181
property float x
property float y
property float z
property uchar red
property uchar green
property uchar blue
end_header
-0.0320815   0.184649   0.852758 0 21 26
-0.212258  0.256581   1.11314 12 9 18
-0.294118  0.262138   1.17781 169 158 162
-0.03423 0.175232 0.851141 27 41 66
-0.0148382   0.182625   0.842326 0 11 19
0.0769742  0.229991  0.932813 105 129 152
-0.174546   0.19369  0.907627 173 158 155
-0.178124   0.19649  0.907547 152 145 148
  3.88194 -0.354741   2.04239 11 21 0
-0.150262   0.24807   1.11339 14 14 14
-0.188545  0.141991   1.74338 32 56 70
 0.819821 -0.916495    2.4281 91 121 134
-0.257108  0.267664   1.28589 116 98 81
-0.100633  0.165267   1.45411 0 0 0
-0.226988  0.261111   1.11467 83 103 117
-0.277482 0.0435357   2.88565 0 0 0
 0.676043 -0.237715   2.71081 184 171 158
-0.0551022   0.206064   0.851784 81 110 131
-0.0947335   0.211864   0.899971 29 37 59
-0.191522  0.184919   1.41209 0 0 0
 0.691534 -0.242816   2.52296 65 90 112
-0.0799123   0.207596   0.877698 101 133 158
-0.0973671   0.239843   0.932662 67 90 108
-0.0517801 -0.0692492    3.10835 0 0 13
-0.0147883   0.221203    1.18332 52 35 30
0.0124896  0.172744  0.959761 51 77 91
0.255843 0.210103  1.44936 161 146 139
   3.7918 -0.134754   2.43029 22 21 0
0.0196826 0.0918602  0.895527 23 42 74
 0.316656 0.0520705   1.69693 68 102 119
-0.22623 0.255222  1.40829 45 58 85
0.00404896   0.230476   0.828166 40 76 105
 4.78309 0.232877  1.99983 87 102 111
-0.188126 0.0308009   2.81474 13 23 14
-0.0475027   0.226051   0.854166 52 82 104
-0.0939215   0.229453   0.918715 70 97 118
 4.71391 -1.72159  3.16871 22 21 12
0.00995207  0.0630949   0.971349 9 13 0
-0.260696  0.268514   1.18255 120 83 33
-0.0667908   0.206403   0.860317 89 123 144
0.0183806   0.20354    1.5584 15 15 13
   4.29311 -0.0579952    2.22667 66 83 85
-0.247507  0.264677   1.21131 165 151 137
-0.0990989   0.225653   0.933247 49 75 92
-0.205706  0.251155   1.36501 22 38 54
  3.72478 -0.117575   2.26814 15 14 0
-0.0890367   0.187058   0.986793 94 117 141
0.00937056   0.175289   0.845199 85 97 108
  5.00561 -0.566093   1.95089 21 41 12
-0.174537  0.203663  0.944038 76 51 38
-0.0563981   0.198195   0.858699 61 94 119
-0.210283  0.242901   1.36548 0 17 30
-0.094285  0.208333  0.900258 93 120 139
0.0168123  0.173079  0.947761 27 40 57
-0.0455566   0.204831   0.843377 96 133 162
-0.0763882   0.192989   0.885183 53 92 127
  4.6152 -0.16209  2.01862 86 95 100
-0.0406822   0.184464    0.86352 107 115 133
-0.0682684    0.22297   0.873762 42 76 96
 0.14485 0.231712 0.792495 43 67 96
0.240489 0.216328 0.828933 58 52 41
-0.0712688   0.207116   0.866125 84 113 137
0.185142 0.159244  1.61462 0 0 0
-0.130238  0.245585   1.17816 192 179 173
-0.226065  0.262816   1.10991 144 138 147
-0.0864492   0.180521   0.956353 50 77 108
-0.174976  0.214505   0.98804 130 116 108
0.66411 -0.7377 2.59247 27 49 63
0.0225101  0.179531  0.832567 0 13 9
-0.196484  0.253521   1.18368 212 202 198
0.018514 0.202908  0.81803 56 101 110
-0.193696  0.192647   1.40162 68 115 158
-0.301726  0.264818   1.30374 38 70 110
0.115447 0.227199 0.941906 33 9 0
0.0840473  0.235055  0.794015 52 80 117
 4.44801 -1.38943  2.64084 49 53 68
-0.174501  0.196061  0.912965 195 169 140
0.0472665  0.167713   1.09504 196 180 170
-0.30926 0.235699  1.29625 203 194 198
 0.26342 0.105589  2.58005 12 21 17
0.226859 0.216405 0.794924 189 177 170
 0.856036 -0.718138   4.90419 108 101 69
-0.00223066    0.198754    0.822987 13 34 65
-0.0143609   0.202449   0.826943 86 123 147
-0.0998953   0.243182    1.21943 141 113 95
0.108034  0.23058 0.804969 49 79 108
 0.788934 -0.366218   3.95693 46 64 31
0.310247 0.118155   2.0189 58 55 54
0.0311071  0.183702  0.826072 56 93 115
 0.0100814 -0.0288988   0.991054 230 226 225
-0.0497661    0.22219   0.856646 29 59 80
-0.0947409   0.189378   0.954066 14 14 13
0.213359 0.221132 0.801589 185 173 171
-0.174652   0.20273  0.968372 37 47 63
-0.100648  0.226344  0.959699 71 89 105
 0.202318 0.0961366   2.66363 14 14 24
-0.0379823   0.204573   0.837896 84 117 143
  0.01353 0.0400992   1.02671 22 33 37
0.0121942   0.21049  0.956341 51 74 95
0.092527  0.16724   1.0954 180 175 180
 4.55156 -1.36538  3.03179 141 130 127
-0.160889  0.249138   1.11305 12 11 9
0.00991963   0.210289   0.963018 59 84 100
-0.0893009    0.20806   0.890502 91 121 144
-0.0287151   0.224334   0.839476 57 94 123
-0.0613481   0.198444   0.861506 89 124 150
 0.390243 -0.140403    3.0623 0 12 0
-0.176283  0.222091  0.970438 135 106 87
  4.33754 -0.963606   2.71884 46 48 31
0.145037 0.182054 0.924432 181 173 168
-0.040893 0.0928081  0.977081 196 187 185
-0.119413  0.157832   1.73029 53 79 91
-0.0622375   0.238053    1.17538 211 201 195
0.00661563    0.16689   0.839025 45 60 61
 0.39985 0.125178  1.64877 40 66 82
-0.0716082   0.224806   0.878423 23 43 61
-0.174268   0.20308  0.976885 104 99 102
0.0182836  0.243183   1.42948 192 177 169
-0.0775954   0.199516   0.880755 83 116 147
0.164611 0.230249 0.808129 47 79 103
0.0102538 0.0589567   1.03817 105 133 155
 0.904668 -0.231416   2.47281 61 92 109
  4.30553 -0.884853   2.82838 208 193 187
-0.0986562   0.158057   0.949356 185 171 164
-0.0870735    0.22458   0.902688 61 87 105
-0.0823268   0.223455   0.892614 39 55 61
-0.176184  0.223751   1.00723 15 14 14
-0.279854  0.271255   1.23586 192 180 172
-0.149564  0.150334   1.73327 39 66 84
0.00999893   0.184565   0.830997 0 0 28
 0.604393 -0.986946   2.69978 199 185 167
-0.00488676   0.0169276      1.0074 34 49 64
 0.0143785 -0.0201202    1.00207 221 212 205
  3.83199 -0.352328   2.08023 69 93 64
-0.215466  0.260774    1.0884 158 136 117
-0.133406  0.197589   1.39703 165 161 160
-0.0195559   0.215016   0.830168 58 90 106
-0.0503352   0.155446   0.859956 145 124 104
-0.0103668   0.202089   0.825311 91 129 154
 0.812399 -0.967109   2.42961 63 93 107
-0.296543  0.268047   1.30547 102 111 122
-0.152142   0.25085   1.08892 170 154 142
-0.0201979   0.191726    1.17345 22 38 67
-0.16123 0.222374  1.34826 164 158 169
0.0138611  0.215887  0.959391 27 48 70
0.00875079   0.181515   0.835021 0 0 0
0.259598 0.214097 0.830348 187 175 173
 5.01475 -1.06011  1.94726 0 0 0
-0.266213  0.264342   1.33832 87 101 116
-0.0481518   0.197021   0.849881 66 97 128
  5.0853 -2.14562  4.58558 45 43 26
-0.220819  0.256028   1.11617 200 192 195
0.681996 -0.54532  2.60493 30 39 53
 4.80806 -1.80576  2.81521 16 36 48
0.396297 0.211832 0.861729 135 122 95
-0.167756  0.186302   1.40314 14 13 29
 4.77512 -1.75448  2.69312 201 186 144
-0.0490842    0.20585   0.847291 98 133 156
-0.304148  0.272868    1.2178 210 202 196
  0.25921 -0.476322   4.85994 110 115 94
0.145154 0.232098 0.796122 33 61 97
0.107385 0.231083 0.800963 56 86 121
-0.0729403   0.199126   0.873672 74 103 125
-0.174612  0.212936  0.939084 109 89 77
0.0249473  0.199171  0.817848 71 111 139
-0.095727  0.189176  0.959391 35 40 56
-0.09108 0.231804 0.916568 48 65 58
-0.254908  0.265556   1.19273 167 159 163
0.472922 0.205419  0.81438 154 148 146
 4.14604 -0.17037  2.14917 0 0 0
-0.17378 0.202356 0.987952 116 74 27
  3.76407 -0.410879   2.08766 21 27 0
 0.257931 0.0666134   2.56386 0 0 0
0.0147698 0.0264162  0.967458 100 126 138
0.964731  -1.0994  2.45394 22 38 52
 0.990581 -0.271652   3.64112 29 48 23
-0.222883  0.108525  0.766753 13 22 19
0.144652 0.161543 0.898464 75 90 100
-0.101025  0.177655   1.41296 0 0 0
-0.251019  0.265191   1.20054 60 48 22
-0.0963027   0.254667    1.27059 192 181 178
-0.0522704   0.199226   0.853204 27 61 98
-0.0446332    0.19888   0.846804 19 46 80
 0.749072 -0.944138   2.48188 78 111 140
 4.64396 0.225977  2.20029 28 37 13
-0.0906259   0.234494   0.912543 82 109 128
 4.54734 -1.29222  3.02797 129 132 144
 0.808227 -0.500378   2.44294 26 43 59
-0.0194717   0.194329   0.832595 55 93 122
-0.0786458   0.170764   0.898474 66 86 93
0.0183304  0.182447  0.831116 38 73 106
 5.43867 -2.71819  4.66802 21 35 23
0.111103 0.232255 0.813026 32 59 90
 0.251505 0.0960448   2.20571 137 127 123
-0.258484  0.266163   1.18176 130 120 129
-0.0752936   0.199487   0.877482 88 117 142
0.212798 0.135571  2.47439 21 19 29
-0.174861   0.20445  0.934357 58 24 7
0.0105871  0.206519   0.96013 22 39 46
-0.0840602    0.24481    1.06034 8 0 0
-0.0305526   0.159756   0.842118 33 58 71
-0.156288  0.250434   1.09044 101 76 52
-0.0905162   0.183826   0.955695 13 35 58
0.018827 0.183598 0.829143 0 0 0
-0.101154  0.225047  0.947405 75 94 105
-0.0937078   0.192809    1.01502 216 206 204
-0.00494125    0.228958    0.831241 74 107 129
0.027038 0.181978 0.831075 32 71 106
-0.202475  0.226685   1.00693 19 40 54
-0.0525565   0.205487   0.849054 98 129 152
0.0454377  0.171813   1.09015 26 50 71
-0.0782874    0.22307   0.886769 43 68 85
  5.0528 -2.53659  4.09003 29 44 36
-0.0671911   0.198618   0.866333 79 111 138
-0.0888896   0.187108   0.980598 84 105 126
0.000586374     0.20152    0.821276 90 125 150
0.00735409   0.192469   0.823864 66 102 128
-0.104659  0.209637  0.926329 149 150 156
 0.642908 -0.618766   2.67078 36 65 87
0.00032164   0.185545   0.834614 0 0 13
0.141129  0.15187 0.899354 0 0 0
0.0565356  0.170738   1.08909 29 51 75
-0.0892253   0.217771   0.892389 14 13 31
-0.0948005   0.224586   0.923755 56 84 103
  4.99148 -0.312471   2.05163 78 74 49
-0.0175345   0.186848   0.840002 0 0 0
 0.663406 -0.385985   2.51195 78 108 134
-0.0153707   0.196065   0.830269 29 59 87
 4.48283 -1.07415  2.44837 190 182 171
-0.0708119   0.199253   0.871132 80 112 145
0.131685 0.152911 0.947978 44 32 28
-0.0419059   0.220419   0.849212 52 80 94
-0.0998648   0.225044   0.938607 62 86 103
-0.0306608   0.195798      0.838 70 104 126
-0.0425606  0.0793832      1.056 153 182 197
-0.286856  0.264886   1.35159 23 35 58
-0.223709  0.257468   1.16578 180 163 163
-0.292705  0.273226   1.23555 193 179 174
-0.012052  0.194519  0.830455 67 106 135
   4.57455 -0.0154912    1.93433 68 83 53
-0.194672  0.254452   1.08626 191 176 169
-0.111809  0.244034   1.23407 197 185 178
-0.108228  0.209339  0.941942 159 154 156
 4.69032 0.145379   2.0909 0 13 0
-0.153313  0.246885   1.13626 171 159 159
-0.0573648   0.200041   0.856824 18 51 74
0.049577 0.179371 0.830267 51 92 119
-0.00404637    0.201374    0.822318 91 127 150
-0.0973558   0.192554    1.00338 214 205 201
0.0108889   0.19957  0.819071 84 122 143
0.0767724  0.179324   1.07145 33 64 89
0.0664121  0.170178   1.08767 20 35 52
-0.100148   0.19218  0.995046 212 203 200
-0.0682086   0.241029    1.10483 198 187 185
-0.229894  0.255028   1.36853 11 40 65
-0.042848  0.204797  0.841527 91 122 141
-0.0373269   0.198138   0.840248 28 51 73
  3.96248 -0.771707   2.30061 201 163 39
-0.0132303   0.185817   0.841369 59 87 117
4.49034 -1.4311 3.00179 168 156 147
-0.19432 0.113661  1.79415 62 89 110
0.339316 0.148991  1.37993 102 115 132
 4.41585 -1.58099  2.52736 98 90 80
-0.0687545   0.198886   0.868694 70 106 135
-0.0548315   0.211886   0.850299 82 119 144
-0.168231  0.181104   1.40576 12 11 21
0.0359801  0.157601   1.09083 0 0 0
0.317868 0.105172   2.0382 204 194 190
-0.0953231   0.228806   0.921814 67 97 121
0.250031 0.018084  2.19721 121 97 52
 4.63596 -1.77103  2.70342 169 160 163
-0.0401516    0.18767   0.856373 49 88 117
-0.0495339   0.188733   0.863534 61 102 136
 4.49335 -1.37647  2.70772 139 129 127
-0.175692  0.221043  0.951444 115 89 71
-0.0966847   0.251131    1.31046 186 171 163
 0.682884 -0.474152   2.67743 11 33 50
-0.255109  0.265813   1.17655 97 85 67
-0.0871084   0.159306   0.900582 182 177 181
-0.100796   0.22789  0.951532 37 57 74
0.0103467   0.18257  0.832177 32 73 107
-0.28735 0.274602  1.23952 193 180 176
  2.41893 -0.437904    4.0779 143 176 195
0.272521  0.12431  1.44962 185 173 168
-0.0980434   0.234256   0.928694 80 109 134
-0.183758  0.257126   1.36471 15 29 43
-0.0393331   0.196332   0.843274 63 96 116
0.0364311  0.147811  0.940148 24 45 62
 0.675775 -0.637069   2.58496 23 34 50
-0.176101  0.231689   0.97857 28 29 28
0.0078743  0.177871   0.83885 13 11 10
   4.56904 -0.0663538    2.06776 46 70 66
-0.0781732   0.201332   0.879345 56 87 113
-0.165161  0.251474   1.18169 191 178 173
-0.0903756   0.227976   0.911346 40 63 86
0.108389 0.166319  1.06977 30 44 60
-0.0962879   0.214834    0.90253 92 113 130
-0.260544  0.269162   1.22682 66 51 61
  0.732719 -0.0602961    2.59858 26 48 64
0.160244 0.168001 0.978771 114 122 140
 0.643388 -0.895647   2.53844 74 103 125
0.00140914  0.0861965   0.938863 138 165 186
-0.0651379   0.212533    0.85815 90 125 151
0.236791 0.219993 0.788406 184 172 172
0.0876191  0.179036   1.07056 0 8 15
 0.798376 -0.576077   4.99225 191 193 149
0.00626994   0.168774    0.96662 41 64 81
-0.17741 0.226627 0.973854 63 54 49
-0.243776  0.265329   1.20841 83 67 71
-0.127382  0.178447   1.40267 0 0 0
-0.0630861   0.200375   0.860957 49 83 100
-0.0915571    0.21483   0.892535 85 116 137
-0.084517  0.183892   1.01412 28 43 60
0.246465 0.129057  1.80188 195 181 173
-0.170239  0.165028   1.40976 0 13 46
0.0563384  0.143834   0.83771 13 14 13
-0.0322693   0.198039   0.838385 27 57 77
-0.0881039   0.202002   0.893205 36 63 91
-0.253283  0.262076    1.1623 174 162 171
-0.0803004   0.201439   0.882682 51 78 92
0.0244062  0.119653  0.905322 0 0 0
0.0143919  0.180733  0.833031 0 11 19
0.0534753  0.236674  0.802825 39 72 106
   2.33442 -0.0691741    3.93315 105 134 149
-0.0532172   0.189718    0.86281 15 23 39
-0.191832  0.254438   1.07288 214 207 210
-0.105611  0.201067  0.951034 194 185 185
0.0105819  0.207695  0.979235 119 121 126
-0.237105  0.260776   1.11711 192 176 165
 4.50542 -1.61109  2.74834 113 89 72
-0.185101  0.233516   1.00469 158 134 116
-0.103107  0.209638  0.922095 139 148 160
0.0655531  0.235849  0.809994 29 50 87
  3.43393 -0.481228   2.28417 83 106 126
0.0104265  0.195537  0.960662 30 42 51
0.0787866  0.195971   1.55539 0 0 0
-0.301536   0.27097   1.29143 27 31 47
-0.0869657    0.18544       1.01 171 155 153
0.156629 0.167548 0.962626 148 146 154
0.0131349  0.193981  0.822057 35 60 85
-0.238031  0.259325   1.13829 187 174 173
 0.656597 -0.470846   2.67082 41 76 100
-0.0497305   0.199261   0.850675 29 53 78
-0.0745914   0.225728   0.881177 35 69 95
-0.108538  0.207822  0.993141 196 188 187
-0.021037  0.229096  0.837272 61 89 107
-0.103707  0.159641  0.968572 211 202 197
-0.172657  0.200748    1.0041 177 162 150
0.503168 0.200908 0.854841 179 163 158
 4.35624 -1.03401  2.86819 82 94 105
-0.229914  0.258708   1.13967 205 195 200
-0.045781  0.197362  0.848993 80 112 133
-0.048145  0.198929  0.848406 56 81 100
-0.0749872   0.158877   0.883044 171 167 171
4.54814 -1.1896 2.84178 159 155 152
-0.241686  0.265201   1.20154 160 154 159
-0.0425577   0.187744   0.857812 33 67 100
-0.0335812    0.15505   0.844878 121 129 145
-0.0783779   0.242979      1.108 201 192 192
0.292821 0.159079   1.5195 93 88 91
 0.977283 -0.197797   3.59215 0 8 0
0.165091  0.16473 0.967324 27 41 54
0.142435 0.170825 0.911633 71 78 91
0.040869  0.18079 0.830865 36 73 111
-0.298926   0.27347   1.22102 207 193 187
-0.221316  0.261155   1.09044 42 20 34
 0.707997 -0.485207   2.50833 78 108 127
-0.105319  0.220894  0.970986 3 29 56
-0.0336083   0.196171   0.839586 76 109 139
-0.197264  0.232934   1.36298 0 9 17
-0.260535  0.256901    1.3521 207 191 179
 1.00806 -0.52248  4.19232 21 27 9
-0.203624   0.23321   1.00585 149 141 137
-0.0621044   0.246836    1.28236 209 200 199
-0.0358167   0.225057   0.845981 54 96 119
-0.172451  0.193947   1.00394 149 129 120
-0.0279587   0.103204    1.00665 98 111 125
 4.60542 -2.05212   3.5457 67 92 113
-0.00662951    0.197041    0.825393 89 123 145
-0.0408161   0.200358   0.842452 40 82 119
-0.297599  0.265206   1.32434 212 201 196
-0.00582068  0.00832891    0.994446 117 141 158
 -0.1912 0.127951  1.77914 43 72 105
0.0350369  0.191519  0.818662 21 49 67
-0.0862513   0.202149   0.891047 41 64 87
-0.0935241   0.214897   0.895954 80 112 134
 4.36722 -1.23218  2.61978 0 0 22
-0.0377886 -0.0504085    1.01585 69 86 91
-0.197522  0.249335   1.36422 8 36 54
 0.324232 0.0513438   2.15651 72 105 121
 0.16292 0.158185 0.951332 43 65 84
-0.0471668    0.23856    1.17172 90 68 58
4.84331 -1.5965 3.37372 35 29 7
-0.0681286   0.200713   0.866072 37 64 81
0.235868 0.218389 0.825777 193 194 185
0.156736 0.197787 0.966668 58 71 84
-0.0851535     0.2036   0.887769 103 132 156
-0.107604   0.21545  0.931044 141 138 140
 0.252688 0.0994767   1.75871 31 43 58
0.0959936   0.23216  0.797005 33 54 93
-0.194271  0.226149   1.00692 23 34 51
0.177158 0.140366  1.98629 204 192 189
 0.651882 -0.327406   2.50025 11 6 0
-0.0231462   0.186156   0.844506 38 76 111
-0.0777179    0.19052    0.89581 60 97 135
-0.0959615   0.235905   0.924775 84 108 125
0.0244852  0.193076  0.820643 20 55 76
 0.867312 -0.259983   3.65441 52 54 15
0.150596 0.189815 0.934418 52 61 62
0.277115 0.184493  1.67286 0 0 0
 0.454569 -0.013471   2.57005 29 58 76
0.181282 0.148944  2.05585 206 193 188
-0.089529  0.174633   1.00669 13 21 28
-0.0637524   0.249476    1.32364 208 197 192
  3.09244 -0.451392   3.69105 74 72 52
-0.116041  0.166283  0.947784 11 9 7
-0.0738183   0.172087   0.898356 9 25 40
-0.102171  0.155251   1.42064 0 0 0
  1.10855 -0.373793   3.86365 32 59 60
 0.855459 -0.712048   2.46034 76 108 126
-0.0521477   0.214202    1.09985 43 59 84
-0.122465  0.247054   1.22832 204 194 185
-0.0252759 -0.0265791    1.03118 27 52 60
-0.11018 0.255402  1.30706 197 184 176
0.0386299  0.119392  0.893229 219 212 212
0.0540692  0.236835   1.35912 208 198 194
-0.106258  0.211298  0.996348 140 143 154
0.0101865 0.0515138  0.997924 20 33 37
-0.0732464   0.239064     1.0578 210 196 189
0.070493 0.149216  1.92572 181 169 168
0.298019 0.162162  1.35263 174 167 171
-0.065136  0.132909  0.988418 184 175 185
 0.694807 -0.433399   2.52466 0 0 0
0.0134638  0.157834  0.996799 21 36 52
-0.171166  0.192831    1.0141 195 182 175
-0.0769228     0.1554    0.90064 180 159 147
-0.0832415    0.24299    1.23503 198 187 182
0.271523  0.17442    1.416 23 35 44
-0.0521685   0.247738    1.30023 207 195 187
-0.0981275  0.0772686    1.82426 0 0 0
 0.950871 -0.325659    2.4051 0 0 0
-0.10087  0.20914  1.02037 160 156 162
0.154768 0.167319 0.945665 169 161 155
0.141205 0.176606  0.91242 57 66 65
  5.03188 -0.332294   1.91773 68 62 31
   4.9492 -0.780959   2.12208 39 46 0
0.151687 0.175861 0.937269 28 38 40
0.024942 0.184417 0.950597 168 155 151
0.00267089  0.0812117   0.943491 88 119 143
 0.0060994 0.00223226    1.01336 29 42 49
 0.27774 0.159359  1.36672 0 0 0
-0.106386   0.20128  0.956173 150 139 135
-0.0625931    0.17465    1.05123 19 42 59
 0.399651 0.0500742   1.79378 67 99 114
-0.113842 0.0919816   1.80071 114 93 78
-0.0339692     0.1806   0.855416 168 159 161
0.00193318  0.0333667    1.00016 21 33 36
-0.0781111   0.134686    1.74767 197 183 173
-0.00900705  0.00561582      1.0392 38 63 77
 5.15479 -1.81893  5.09141 52 61 35
0.120178 0.168199  0.87417 33 42 65
-0.158639   0.25106    1.1844 186 171 166
0.0152148 0.0575388   1.03344 19 48 59
 0.974505 -0.769776   2.50722 35 57 74
0.0592055 -0.304095   3.93106 148 148 158
 0.720347 -0.278966   2.53351 0 0 0
-0.212274  0.253952   1.43486 221 212 204
   2.93524 -0.0365626    3.97566 0 0 15
0.000446441   0.0781913    0.985736 90 104 113
 0.971988 -0.618328   2.48069 28 52 75
 0.868458 -0.409494   2.45363 0 0 15
-0.0550755   0.192187   0.861153 102 139 173
-0.169263  0.172677   1.40686 0 0 0
0.0166717  0.176098  0.948325 39 56 69
-0.00823356    0.100142    0.906069 78 105 120
-0.0857988   0.186396   0.923571 89 118 153
0.936498 -0.98343  2.47514 39 67 88
 0.936311 -0.184996   3.39163 36 56 46
-0.170277  0.200768   1.00285 200 181 168
0.0184608  0.210756  0.943621 59 85 103
 0.266797 0.0112912   2.57952 173 172 174
0.116886 0.173282 0.879141 81 100 122
0.128798  0.17208 0.890964 78 101 128
-0.0831104   0.186661   0.919383 82 115 145
-0.0798889   0.186899   0.916408 75 105 132
-0.209798   0.26219   1.22824 202 190 184
0.00870259   0.091089   0.929258 156 153 163
-0.194897  0.200784   1.39225 63 95 119
-0.0711653   0.187944   0.889214 13 11 6
  2.98977 -0.435849   3.47453 201 181 157
 4.72403 -1.64385  3.40989 80 108 131
-0.176239  0.163303   1.73407 69 98 111
-0.100666  0.164364   1.45407 0 0 0
0.313521 0.130108  1.39043 209 201 199
0.0237225 0.0536678   1.00384 13 22 21
-0.0776343    0.18682   0.910877 75 100 125
0.0204501 0.0552069   1.01614 20 37 44
0.165386 0.225388  1.40587 195 183 178
  3.33201 -0.771665   3.84361 215 205 197
 0.266708 -0.191458   3.36762 21 42 59
-0.0747944   0.173368   0.895886 0 0 0
-0.108422   0.20682  0.951726 158 150 149
0.264475 0.173496  1.36221 193 185 183
0.141338 0.171657 0.904786 78 96 128
-0.0935396   0.185649   0.936041 97 129 164
-0.110554  0.206055  0.969044 122 116 117
-0.0844344   0.188273   0.932205 98 128 156
0.0238163  0.171827  0.942789 60 85 99
  2.90008 0.0243253   3.85956 58 87 100
0.0117281 0.0389924   1.03178 51 78 97
-0.138036  0.214606   1.35216 0 0 0
 0.971708 -0.568794    5.0805 198 180 150
-0.0830032   0.183829    1.02163 194 185 184
-0.00458675    0.032351    0.982117 134 162 183
 0.913374 -0.639448   4.93166 216 203 128
5.27973 -2.5975 5.45587 22 27 22
0.00234688  0.0788248   0.949942 90 113 135
-0.0762839   0.132639    1.76636 214 203 198
-0.0388843  0.0933433   0.954447 149 145 148
 -0.1757 0.181118  1.39465 208 201 201
0.00833076   0.176793   0.966538 44 67 85
 4.85723 -0.75449  1.84627 56 76 84
-0.20772  0.25584  1.17583 62 39 21
-0.131504  0.211169   1.35741 172 172 182
0.231259 0.217349 0.794619 189 179 177
0.185142 0.159244  1.61462 0 0 0
-0.206748  0.227149   1.36456 20 40 56
-0.168718  0.155253   1.73555 47 73 83
-0.0777447   0.199377   0.880745 75 105 138
  2.99981 0.0246955   4.11058 77 110 131
-0.191351  0.096199   1.80975 0 0 0
-0.159421  0.133454   1.75055 168 171 181
-0.145085  0.245345   1.11441 196 183 178
0.0115222  0.018297   1.02083 47 72 79
 0.10716 0.178453  1.06514 13 29 39
-0.168979   0.25017   1.19587 165 152 152
-0.200936  0.167228   1.77049 58 86 100
-0.0992301   0.117294     1.7836 154 162 178
-0.0501232   0.189549   0.860557 15 15 22
0.0235032 0.0754476  0.941989 0 22 43
 5.12076 -2.80137  5.84391 211 195 161
 0.645571 -0.614355    2.7158 191 181 174
0.252852 0.181998  1.38741 71 90 108
0.00791777  0.0568819   0.989815 59 72 80
0.0589142   0.23263   1.40395 196 183 176
 0.236599 0.0625298    1.7856 29 39 60
-0.129479  0.245326   1.33229 22 43 62
0.0341331 0.0480151  0.967562 97 129 149
0.0133018  0.210853  0.956858 48 69 82
0.269433  0.11651  1.45501 36 64 78
-0.173752  0.202486   0.98796 49 42 36
-0.0435039   0.111235   0.963499 0 0 0
-0.158997  0.246688   1.11606 185 174 175
0.255102 0.193298  1.40478 74 79 88
-0.169989  0.192799   1.00526 30 39 54
-0.0382638   0.170402   0.856825 0 0 0
-0.163188  0.122102   1.75029 0 0 0
0.146844 0.161848 0.898994 54 75 87
0.0174573 0.0517367  0.968194 33 61 80
-0.020629  0.117798  0.928027 0 0 0
0.350006 0.139443  1.38904 182 174 172
0.00993381   0.210103   0.963027 60 86 107
 0.680835 -0.526042   2.55103 62 89 103
-0.0153633   0.196055   0.830268 29 59 87
-0.080398  0.190095   1.04444 230 226 224
-0.137857  0.220415   1.35205 0 0 23
-0.0904405   0.174769    1.01215 96 104 113
0.314315 0.165798  1.35484 192 186 192
-0.0932984   0.238362    1.02518 211 198 187
0.156701 0.167343 0.951314 177 167 164
-0.110418  0.209368  0.963417 178 170 165
-0.0920764   0.148813    1.76171 23 48 66
 5.76712 -3.18446  5.88267 39 61 42
-0.0346635   0.098735   0.994205 168 156 147
-0.0811943   0.210445    1.37589 172 165 165
0.0132891  0.176745  0.955222 32 47 62
-0.0790199   0.196327   0.888831 11 18 7
 0.28564 0.135113  1.43138 58 96 123
   0.72904 -0.0370582     2.6299 20 41 66
-0.00791215   0.0387195     1.04514 86 113 128
0.0215118  0.214446   1.00179 202 190 182
 5.08613 -1.85121  5.56709 196 171 133
-0.127642  0.178266   1.40221 0 0 0
-0.167283  0.213757   1.35186 168 164 170
-0.00222161   0.0504832     0.97454 148 179 199
-0.158916  0.204658   1.38265 130 143 166
0.0704413  0.173161    1.0802 83 110 138
 0.11126 0.157161 0.863021 0 0 0
-0.108533  0.207821  0.993143 196 188 187
-0.246729  0.262245   1.39585 22 43 52
5.21578 -2.7057 5.62245 22 27 21
-0.208218  0.253569   1.21137 31 22 0
  0.62848 -0.743119   2.66509 41 74 102
0.0624472  0.174233   1.08479 105 121 139
-0.117826  0.155417   1.72858 39 60 79
-0.0729832   0.189022    1.05414 226 219 217
-0.258202  0.266429   1.29221 57 39 72
-0.00291741   0.0565335    0.979537 0 13 10
-0.0316997    0.10106    1.00068 135 134 138
 0.515723 -0.393458   2.68438 74 98 113
  0.89878 -0.323856    2.4635 0 0 0
 -0.1056 0.201069 0.951159 198 190 193
-0.153629  0.187791    1.4006 73 66 69
-0.225686   0.26268   1.28209 199 189 191
-0.0993548   0.197023   0.939365 129 119 116
-0.110468  0.209214  0.974591 188 184 187
0.00156063   0.239717    1.38864 175 159 151
 -0.1012 0.198523 0.941656 202 194 194
0.00651651  0.0631331   0.964957 20 34 48
-0.00132679   0.0861074    0.952302 129 148 168
-0.100415  0.198637  0.938038 185 172 167
-0.0847493   0.254296    1.05529 177 159 146
-0.0568868   0.187605   0.871964 0 8 0
-0.201466  0.157011   1.76172 28 48 62
 0.801452 -0.798125   2.44061 56 94 118
0.254702 0.209862   1.3715 72 75 76
-0.146825  0.191706   1.33908 0 0 0
 0.29441 0.180214  1.34284 149 144 150
-0.106314  0.202655  0.946673 147 136 134
   0.83623 -0.0728327    2.50293 68 107 137
-0.103362   0.20041  0.994146 205 193 189
 0.10722 0.137746 0.870664 111 134 156
-0.047299  0.239591   1.11349 86 88 94
-0.093638  0.159634  0.916765 196 189 193
-0.0174764 -0.0313674    1.02381 81 105 116
-0.124737   0.24695   1.16502 194 183 181
0.378775 0.121573  1.73613 11 32 39
 0.740139 -0.395048   2.52961 57 88 107
-0.0961308   0.198434   0.921325 150 145 149
-0.107094  0.200862  0.967843 193 182 175
-0.207066  0.213884    1.3811 0 0 26
-0.018925  0.207006   1.17041 52 37 39
-0.00581415   0.0336094     0.99201 50 67 80
-0.100164  0.198882  0.934059 175 164 161
 0.859011 -0.136729   2.47022 34 57 72
0.0140643  0.210246  0.953053 23 30 45
-0.164485  0.251169   1.11584 7 13 34
-0.150607  0.245896   1.14795 155 140 139
-0.110925  0.209177   0.96988 170 170 178
-0.212406  0.261189   1.33846 173 163 171
0.00809335 -0.0238941   0.985576 64 79 74
0.0124055  0.214663  0.958978 38 55 75
-0.203465   0.21531   1.37215 155 148 144
 0.800649 -0.735297   2.45968 47 67 84
-0.0845275   0.220371    1.04415 142 136 135
  2.99386 -0.724856   4.43013 66 103 125
 0.727746 -0.498586   2.50845 21 40 60
-0.181114  0.144779   1.74195 124 142 156
0.125609 0.168536  1.05397 83 116 145
 0.30173 0.176216  1.48815 80 86 98
-0.111596  0.246248   1.11538 67 48 40
  2.95215 -0.549849   4.38577 83 111 128
-0.0919617   0.191273   0.928112 58 88 116
-0.0546699   0.247299    1.37222 89 94 113
-0.138559  0.254583   1.31885 21 32 46
-0.166533  0.257552   1.27422 110 107 100
-0.0948364   0.156233   0.933417 210 200 195
-0.0796828   0.189096   0.902428 0 0 0
-0.00657238    0.123307     1.01184 192 182 183
-0.104274  0.198148  0.971338 219 211 208
-0.0435888   0.237776    1.16625 99 85 69
-0.0914181   0.202396    1.04158 168 157 151
0.141313 0.188476 0.916928 156 152 155
-0.173648  0.113649   1.77994 122 108 110
-0.0395508   0.118356   0.970059 0 0 0
 0.255735 0.0966717   1.82142 49 73 90
-0.211809  0.262412   1.26006 173 158 151
-0.0759216   0.181791   0.899756 0 9 27
-0.120603 0.0906256   1.80894 128 137 150
-0.176866  0.193278    1.0059 176 167 169
-0.0071978  0.0966314    0.90492 75 107 126
-0.102529  0.198132  0.978259 207 193 182
-0.0345425    0.11202   0.988549 29 40 44
-0.0231183   0.186223   0.844545 38 76 111
 5.06475 -1.61707   5.5304 179 168 156
-0.103885   0.19958  0.998377 201 190 185
-0.0880264   0.197245    1.04102 219 209 201
-0.143307  0.193744   1.39868 208 204 199
-0.105286  0.199923  0.988295 201 189 183
0.131337 0.137007 0.886091 106 128 153
-0.020543 0.0182907    1.0463 33 59 66
-0.0959878   0.191258   0.995835 107 92 89
-0.174054   0.20628  0.999765 93 74 60
-0.135022  0.138063   1.74482 157 159 147
-0.0294031   0.111583   0.997136 30 35 40
0.00894077  0.0635588   0.977446 74 101 129
-0.214874  0.218237   1.38142 146 134 135
-0.107753  0.202703  0.962364 120 102 85
-0.212655  0.244607   1.38534 36 55 66
  1.01086 -0.266794   3.60249 82 103 93
-0.107992  0.202664  0.966618 160 146 140
-0.106195  0.202459  0.949601 136 131 139
 0.695916 -0.375835   2.53311 0 0 0
-0.115708  0.147227    1.7303 28 49 66
-0.150851  0.256703   1.27905 21 26 6
-0.105546  0.199677  0.958425 134 132 130
-0.152347  0.209357    1.3656 196 188 190
 0.737891 0.0367052   2.64429 23 29 33
-0.096264  0.197651    1.0246 211 201 193
-0.16607 0.255626  1.27822 197 184 174
-0.102244  0.244322   1.18774 190 184 192
0.00991545   0.155721   0.957155 11 26 34
-0.0484671   0.241516    1.11077 170 153 146
-0.203453  0.204436   1.39107 148 145 161
-0.217331  0.262603   1.21255 169 148 132
 0.710562 -0.364521    2.5313 65 89 106
-0.0478168   0.102003   0.966007 135 130 130
-0.0887429   0.251077    1.26797 214 208 203
-0.202476  0.252952   1.22054 181 165 155
0.305145 0.174725  1.55427 0 0 0
-0.185362   0.25082   1.22268 207 195 189
-0.102873  0.197826  0.981966 206 190 179
-0.185027    0.2524   1.21159 196 180 172
0.342526 0.148325  1.36965 163 164 173
-0.109878  0.181577   1.41374 199 193 191
-0.109677  0.214259  0.988628 193 186 185
  3.05403 0.0521089   3.75438 0 0 0
-0.0684555   0.242627    1.11434 148 109 47
0.00536356   0.149486   0.970816 39 46 59
-0.0128032   0.117084   0.918573 0 0 0
-0.0667555   0.241113    1.13928 182 168 169
-0.102314   0.20121   1.00972 160 144 132
-0.085513  0.236881   1.03775 156 145 138
0.0328579  0.190597  0.820528 53 90 119
 4.62436 -2.41932  3.56914 61 87 106
0.00506538  0.0693096   0.988293 42 63 83
 5.54766 -3.05716  5.04073 112 128 147
-0.176648  0.215818   1.36394 29 33 34
-0.10853 0.202558 0.969897 156 140 132
-0.074285  0.179888   0.89649 15 13 11
0.0176678  0.148436  0.991059 9 7 3
-0.0919294   0.189789    1.01613 135 109 82
0.301193 0.117082  1.71899 39 69 86
-0.182836  0.198625   1.38135 150 157 175
-0.105634  0.202867  0.943381 134 122 109
  2.45686 0.0716698   4.01019 71 103 121
-0.140846  0.210733   1.35541 185 180 180
  0.349089 -0.0339411     3.0439 147 136 138
0.0221534 0.0811207  0.931821 105 140 168
0.0258699 0.0967743  0.892349 107 109 114
  0.0096859 -0.00849061    0.994296 202 189 179
-0.0945325   0.191562   0.945819 64 80 97
-0.0923117   0.197438    1.03233 211 201 196
 0.687586 -0.372305   2.66269 22 37 58
0.120378  0.13813 0.874555 114 137 166
 0.802872 -0.219649   3.61543 114 115 112
 0.247081 0.0743086   1.79076 207 197 192
 0.866044 -0.319922   2.46076 0 0 0
 0.283118 0.0401807   1.72823 176 177 182
-0.0943784   0.243137    1.20228 179 168 156
-0.0648825   0.189649   0.879388 58 90 123
-0.078477  0.191435  0.892999 0 12 7
-0.163406  0.094242   1.80687 187 177 173
-0.102677  0.245477   1.21503 210 198 193
-0.108096  0.204594  0.958138 160 161 168
-0.206517  0.253802   1.20612 220 208 189
-0.108558  0.208432  0.988443 197 189 186
-0.108532  0.203819  0.977972 191 183 178
-0.0335487   0.245532    1.29033 210 199 191
-0.0551863   0.187638   0.870071 13 10 13
-0.122444  0.109731   1.78549 0 0 0
-0.105384  0.200232  0.984322 191 181 179
0.108285 0.228886 0.917017 101 91 95
-0.0470025   0.244894    1.27919 202 190 186
0.00821216 -0.0277294   0.971662 224 221 223
-0.0926869   0.205703    1.03919 219 211 207
 -0.016582 -0.0172419    1.03328 198 178 159
-0.100142  0.243951   1.15076 72 38 7
0.129369 0.164683  1.05199 7 30 58
-0.107868  0.204787  0.964446 171 168 168
0.00868837   0.155746   0.959816 13 35 55
-0.105596    0.2018  0.991889 161 145 133
  1.08256 -0.302972   3.58476 97 116 124
-0.101461  0.198891   1.01158 199 184 175
  0.84427 -0.819485   2.44158 46 77 92
-0.0981672   0.197102    1.00837 210 200 195
0.0202817  0.162748   0.98815 108 117 126
-0.108644  0.237573   1.05559 166 141 127
-0.00876956   0.0454988    0.986141 135 149 160
   0.71692 -0.0732411    2.54906 67 94 114
-0.0339891   0.116196   0.981575 0 0 0
  3.01328 -0.467843   3.60627 81 83 67
0.00749629  0.0655609   0.979428 23 40 50
-0.101649  0.196098  0.954151 29 33 29
-0.106321  0.207582   1.00379 184 175 171
0.000156302   0.0829111    0.990996 109 124 138
0.0178574  0.212985  0.946044 69 90 108
-0.0381074   0.109492   0.981797 184 177 177
0.0899765  0.177516   1.58526 0 0 0
0.0193135 0.0349746   1.01469 37 45 54
-0.132998  0.241019   1.33243 38 66 90
0.011885 0.157743 0.979284 86 104 117
0.134107 0.135821 0.893113 112 138 173
0.00685129     0.1552   0.973212 38 53 64
 0.786361 -0.282077   2.53879 14 29 43
-0.0137311   0.118741   0.921373 7 36 42
0.258672 0.130334  1.78163 78 93 104
0.307652 0.065413  1.70465 21 41 58
  3.01424 -0.331132   3.51897 38 36 13
-0.142866  0.197666   1.39411 115 123 138
0.123186 0.184328 0.889049 91 106 118
0.278112 0.129449   1.4345 49 46 46
-0.00919668   0.0495372    0.983195 117 135 148
-0.114066   0.24502    1.1702 42 16 0
 3.09077 -0.10918  4.16282 103 120 131
-0.0908352    0.23393    1.02559 169 158 151
-0.0710336   0.241489     1.1169 208 195 190
-0.0987261   0.206053    1.02673 210 203 200
-0.237755  0.245847   1.04016 147 133 126
-0.28899 0.288187    1.245 194 181 175
0.0285988  0.018704  0.976531 139 166 179
0.0810951  0.119305  0.945553 0 12 13
 -0.566322 -0.0714639    3.07405 0 7 6
-0.347964  0.287044   1.16599 197 184 181
-0.0246102   0.123269   0.971212 13 22 28
  0.74511 -0.848171   2.47805 66 92 100
  4.9023 -2.24495  5.68711 159 146 102
-0.238097  0.259526   1.25146 166 160 163
 5.33189 -2.64772  4.96851 203 187 165
-0.273649  0.267515     1.244 195 182 178
-0.402831  0.269165   1.17363 15 13 22
-0.0711018       0.19   0.889197 13 34 54
-0.0634679   0.189455   0.879335 28 62 101
-0.0961432   0.190508   0.944531 33 59 86
0.0462263 0.0414505  0.968624 0 0 0
-0.344762   0.25887   1.27389 0 0 13
-0.00424108   0.0358761     0.98471 122 156 184
-0.0843301   0.189356   0.908229 14 11 28
-0.533252   0.18092   2.96415 15 23 15
-0.36221 0.260882  1.24678 0 0 0
  2.96569 -0.690758   3.22495 190 180 176
-0.56116 0.111275  2.91181 58 84 95
0.0232066   0.15068  0.940186 14 34 53
0.00187302  0.0242867    0.98012 49 77 86
-0.216782  0.188972   1.42298 181 168 162
 0.804907 -0.912743   2.41689 62 97 115
-0.314007  0.271356   1.26378 0 0 7
-0.268735  0.270098   1.11266 103 91 78
-0.24025 0.227368  1.39565 211 200 184
-0.0977718   0.162564    1.43083 0 0 0
-0.468701  0.078486   2.97029 0 0 0
-0.75923 0.210522  3.25983 35 43 14
-0.197853  0.176936   1.41573 0 0 0
 0.0365492 -0.0104981   0.988315 13 23 28
 5.04248 -1.66456  4.77428 70 80 88
-0.291612  0.252985    1.3423 0 0 0
-0.0467598   0.158339   0.855091 133 141 155
-0.0121842   0.163485    1.08771 49 64 74
-0.113285  0.250416  0.994414 198 186 181
  2.94177 -0.350754   3.10324 0 6 0
-0.0720666   0.228916    1.36674 201 187 178
-0.38468 0.265918  1.21751 205 189 175
-0.264197  0.272933   1.05558 59 48 49
-0.0408461   0.144181    1.05536 208 201 202
-0.0905197   0.201084    1.35486 191 177 170
-0.184337  0.163486   1.42106 182 175 175
-0.0398207   0.183779   0.866073 140 137 144
-0.0304453   0.182967   0.858896 188 178 175
-0.203597  0.232332  0.962886 165 145 147
0.0227241 0.0923905  0.896632 29 57 79
-0.146229  0.158066    1.4546 209 199 193
0.0157913  0.142577  0.940823 21 35 52
-0.226723  0.260642   1.35562 54 56 73
0.0138447 0.0701201  0.954434 34 60 86
0.0931489 -0.042816  0.998444 86 110 123
 4.96584 -3.13962  6.31287 37 40 28
-0.320267  0.271901   1.13659 15 0 15
0.00756991  0.0908567   0.930266 102 136 161
-0.150886  0.252456   1.04696 189 178 174
-0.249792 -0.144508   2.91327 0 0 0
-0.00734891   0.0473608     1.04525 42 73 85
-0.0258881  0.0162519    1.05387 74 103 118
0.149304 0.183234  1.00154 55 84 105
-0.208419  0.220008   1.37273 162 144 125
   4.888 -2.79545  4.75686 8 24 37
-0.167029  0.254182   1.31722 29 43 70
-0.0976392   0.204269   0.911645 73 93 108
-0.00364921    0.161329    0.909019 53 82 98
0.0616994  0.144017   0.84117 44 46 32
-0.112317  0.199957   1.37107 0 0 0
0.0285209 0.0491831   0.96397 84 118 135
-0.270664   0.22809   1.33832 92 125 156
 0.0862908 -0.0256616    1.00815 48 86 110
-0.151363  0.134317    1.7473 170 163 168
-0.064253  0.246953   1.36654 57 81 106
 0.0228493 -0.0117478   0.988655 0 0 0
-0.0132833   0.120546    0.92523 23 35 44
0.0205218 0.0760662  0.939908 13 21 38
-0.233608  0.269559   1.09574 57 34 20
0.00875246   0.123359    0.91092 0 0 0
-0.250678  0.269284   1.07092 160 145 133
-0.244703  0.266961   1.08769 151 132 119
-0.113871  0.175608   1.41225 118 113 121
  0.1588 0.161623  0.97526 51 70 86
 2.98628 0.109568  2.95858 101 121 134
 0.472936 -0.248896   3.60317 172 174 132
  2.93688 -0.607866   2.91809 79 105 124
 0.0203345 -0.0179817   0.968798 139 175 201
0.00208233  0.0302859   0.980506 10 32 40
  2.93298 -0.271839   3.16607 182 175 173
0.145614 0.169559 0.919323 168 154 145
-0.367645  0.282615   1.10825 172 155 140
-0.0230563   0.165111    1.08484 183 168 160
-0.367463  0.280175   1.16943 0 0 0
-0.0773914   0.186349   0.906801 82 113 149
  2.92789 -0.616557   3.10366 31 35 16
-0.0455466   0.166196    1.74847 201 188 177
-0.370878  0.277748   2.90845 15 15 15
0.154576   0.1773  0.97499 44 46 30
0.153771 0.165247 0.922976 29 38 38
 -0.543175 -0.0984915    3.15408 15 15 13
0.0113739   0.16567  0.835505 0 0 0
0.0482947 0.0265271  0.971467 21 42 61
0.0260299 0.0632496  0.948335 135 166 188
-0.304947  -0.20829   2.90961 0 0 0
 -0.696913 -0.0956645    3.24932 29 58 80
-0.0731271   0.213899     1.3738 14 14 13
  2.91627 -0.275941   3.01951 72 94 112
-0.129647  0.155095   1.43964 0 0 0
0.155895 0.175777 0.954257 83 93 105
 0.0124498 -0.0176667   0.975933 102 122 134
  2.97998 -0.286102   2.93857 15 15 14
  3.00471 0.0652614   3.32789 195 171 141
0.0208665  0.183697   1.07906 32 58 79
 5.13444 -1.86547  4.85597 52 59 30
-0.298764  0.271299   1.28108 40 63 89
-0.372597  0.262651   1.21248 12 29 39
-0.00191713    0.088652    0.944029 99 116 128
-0.622815 -0.262756   3.32299 0 13 14
-0.138763  0.255827   1.30289 196 180 170
0.0510663 0.0126178  0.972112 107 142 164
0.00918993 -0.0116783   0.994789 200 191 186
 0.622135 -0.907095   2.65713 29 46 63
-0.523782  0.454576   2.92157 54 67 70
-0.399416 0.0526912   2.99653 13 11 0
-0.525364  0.083636   3.00089 13 11 0
-0.104966  0.242835    0.9705 178 165 158
 0.0436466 -0.0642102    1.02413 28 42 54
-0.312098  0.254033   1.34026 79 112 132
  3.01911 -0.561625   3.34373 14 36 28
-0.0807609   0.203885    1.37793 150 147 151
-0.0909812   0.187155   0.951234 96 127 162
-0.397838  0.279148   1.12295 29 60 87
0.0251347  0.163787  0.941994 76 112 136
-0.238175  0.267716   1.07938 83 64 56
-0.0989771   0.209198   0.912173 134 152 165
0.151543 0.162817  1.01893 21 33 53
  0.0128471 -0.00700302     0.99375 0 0 13
-0.389428  0.278225   1.14894 29 50 66
0.153597  0.16745 0.999979 86 119 152
-0.100306  0.246166   1.05912 115 98 81
-0.155518  0.257893   1.29844 206 193 189
  3.4379 -1.00217  4.68497 119 125 134
  2.95245 -0.336616   2.97257 81 98 99
0.0604644  0.173261  0.841978 14 21 40
-0.130945  0.209277   1.36255 191 182 183
-0.229281  0.265431   1.08371 35 30 58
-0.258174  0.270166    1.1944 172 155 129
 -0.651574 -0.0853169    3.29045 0 0 0
-0.128379 0.0801622   1.83888 0 0 0
 2.95411 0.125405  2.88312 45 64 83
  3.38056 -0.685942   4.13797 97 95 57
0.155278 0.174347 0.992071 42 58 71
0.0340092   0.16444   1.10148 194 181 175
 0.0117218 -0.0171686   0.985416 39 55 55
-0.238465  0.263103   1.11405 15 15 15
-0.00742261   0.0226855    0.990394 0 9 21
0.225025 0.157256  1.01101 0 0 12
  2.99522 -0.152821   2.94216 0 0 0
-0.658153 0.0303597   3.23174 94 114 136
-0.152142  0.255617    1.0162 187 171 162
-0.209439  0.132208   1.77919 161 147 139
-0.185853  0.218769   1.37106 93 124 136
-0.36683 0.281261  1.07021 177 161 150
-0.671011 -0.199963   3.23378 86 103 115
-0.044441  0.133944    1.0454 0 0 11
-0.369862  0.275475   1.19758 34 45 80
-0.251754  0.270803   1.06039 0 0 0
  3.26667 -0.645673   4.41529 65 93 120
0.0308464  0.102988  0.887514 79 109 125
-0.534676  0.243569   2.94036 128 153 150
-0.392109    0.2816    1.1214 63 97 121
-0.210676  0.254898   1.16004 193 176 164
 -0.719306 -0.0544893    3.24371 0 0 0
-0.195677  0.233375  0.990204 127 111 111
-0.351888 0.0516527   2.90613 113 138 146
 -0.271575 -0.0926204    2.95465 0 0 20
-0.401531  0.264675    1.1323 24 30 40
-0.129278  0.118337   1.76691 159 146 146
-0.377572  0.259605   1.20845 204 193 191
-0.39941 0.248468  1.11574 201 189 186
 0.15459  0.18473 0.979828 86 110 129
   3.13902 0.00746523    3.44264 13 11 13
-0.257579  0.267961   1.06354 150 133 125
-0.257009  0.272667   1.04599 206 196 197
-0.0775716    0.16118    0.88165 180 162 151
 0.827024 -0.295149    3.7019 13 12 13
-0.532173  0.116767   2.97356 59 77 34
0.153997 0.172384 0.997668 41 62 89
   0.106746 -0.00407118     1.01423 80 110 127
0.157539 0.167594 0.971437 131 131 135
 0.0999195 -0.0133898      1.015 28 50 62
-0.17953  0.20345 0.905994 0 21 39
0.0243091 0.0863781  0.923947 140 173 193
-0.0919414   0.189132   0.931901 0 21 25
 0.0248221 -0.0109358   0.986268 0 0 0
-0.000895649     0.180484      1.07841 128 136 152
-0.237226  0.262775   1.21404 116 100 89
0.0611387  0.172756  0.836898 0 13 13
-0.218682  0.247492   1.39564 219 210 205
-0.175717  0.250003   1.33148 50 80 98
0.210002 0.100165  2.55349 0 0 0
0.0219348  0.151144  0.826198 64 96 120
0.0106429   0.18679   1.07996 19 38 31
  2.98435 -0.455549   3.29377 31 34 5
-0.372632  0.274476   1.18826 35 63 96
-0.0252024   0.237288    1.45858 182 168 164
0.0772213 -0.056894  0.994703 54 87 103
-0.502207  0.490512   2.98192 0 0 0
-0.0971322   0.201313   0.916137 148 150 164
0.00284006   0.168821   0.922254 131 128 127
-0.0181677   0.182639    1.07392 105 121 141
-0.109804  0.188141    1.3725 229 217 205
-0.250503  0.268057   1.08363 17 7 22
0.153016 0.180717 0.943266 83 98 111
0.0290765 -0.006905  0.986577 75 105 120
-0.0679289   0.174451    1.43542 15 15 13
0.0331516  0.177349   1.08741 107 122 139
-0.377618  0.279922   1.16437 33 63 89
  3.19772 -0.884971    4.3373 35 40 22
  3.03893 0.0220583   3.40908 13 12 13
-0.0565436   0.246616    1.34713 206 197 194
-0.206707  0.160758   1.41146 215 198 181
  3.25459 -0.734842   4.44361 64 94 109
0.0330667  0.106301  0.888575 0 0 0
-0.0754233   0.199335    0.87739 72 103 123
-0.0045826   0.166114    1.08804 200 188 182
-0.244969  0.265169   1.11478 13 23 20
0.0236473  0.113838  0.901342 0 0 0
-0.259559  0.268605   1.26971 108 102 99
-0.265145  0.267514   1.23509 199 187 183
  5.5936 -3.14233  5.15823 12 28 32
-0.341011  0.172991   2.91399 0 0 0
-0.323401  0.278968   1.05329 192 175 173
-0.360283  0.186461   2.88769 31 51 43
 -0.58608 -0.195455    3.3105 13 13 0
-0.0190838  0.0297015    1.04912 28 44 57
0.147524 0.197204  1.01562 78 105 125
-0.0370567   0.112315   0.948943 11 28 33
-0.142604  0.250132   1.03024 176 157 147
0.0181398   0.14942  0.943048 23 41 59
-0.0960061   0.192437   0.931694 0 0 0
-0.216991  0.262959   1.36096 33 59 85
-0.106905  0.246891   0.98533 154 127 97
-0.136264  0.096291   1.79731 183 179 182
-0.192567  0.163264   1.43092 182 168 160
-0.0695043    0.18565    1.41105 0 15 15
-0.625342  -0.20963   3.21465 88 103 99
3.08385 -0.4942 3.46264 0 11 0
-0.0425604   0.187742   0.857809 33 67 100
0.0128724 0.0797673  0.939083 76 108 130
-0.0258309  0.0208178    1.04733 84 109 124
0.0299623 0.0978304  0.887211 82 119 141
-0.0495339   0.188733   0.863534 61 102 136
-0.00171056    0.191995     1.07313 75 109 128
-0.102864  0.198006  0.952193 219 208 202
 0.15364 0.184166 0.987274 67 88 107
-0.58089 0.217103  2.93927 67 86 90
-0.26333 0.267493  1.12877 68 52 39
0.0383165  0.160356  0.939789 63 95 114
 3.01552 0.134174  2.96457 81 104 120
-0.0801319   0.246871    1.32926 59 81 108
 -0.602269 -0.0482834    3.28836 13 13 13
-0.197963  0.233915   0.96585 154 130 109
   3.1175 -0.248516   3.42094 7 30 11
-0.38606 0.282305  1.15471 50 79 112
-0.522735  0.364974   2.93776 0 0 0
 3.03866 0.128728  3.25414 35 35 34
-0.316434  0.278942   1.05539 172 150 149
-0.0192055   0.121671   0.932635 13 21 28
0.0100546  0.179131   1.08282 116 131 151
-0.0750347   0.176731   0.895487 63 92 117
 0.783302 -0.657435   2.49562 76 107 125
  2.9023 0.139786  3.41278 12 22 13
-0.0892189   0.200341   0.896196 96 120 141
0.644568 -0.93824  2.53429 96 119 133
-0.145684  0.170676   1.73524 38 60 73
  2.95187 -0.355268   3.05055 89 116 142
0.0426348 0.0114279  0.970889 91 131 158
-0.0935489   0.189061   0.940401 13 12 21
-0.0158421   0.178043    1.09048 221 212 206
0.0259034 0.0924101  0.892544 94 91 100
-0.676663 -0.125062   3.21772 0 0 0
 -0.447617 0.00683487    2.94961 14 13 0
 0.0205524 0.00505026   0.976132 60 100 128
-0.151653  0.251959   1.06907 172 154 137
-0.259438  0.269769   1.05501 171 157 152
-0.284855  0.256739   1.36857 213 205 205
0.153383 0.179623  0.95009 102 113 130
-0.0295859   0.183058    1.06463 103 119 139
-0.0450501   0.184802   0.865478 75 102 125
0.150789 0.203857  1.00476 72 98 118
-0.304355 -0.294541   2.95839 40 79 97
-0.580139 0.0965323   2.93852 11 35 23
0.0275152 0.0943466  0.887428 11 12 13
-0.176453  0.160457   1.43003 198 191 192
-0.198003  0.260355   1.32085 196 183 176
0.040492 0.184422  1.08363 20 40 57
-0.321698  0.267191   1.27183 21 26 24
-0.22438 0.267386  1.07781 138 125 124
-0.368536  0.277842   1.18745 47 72 105
-0.292588  0.271428   1.12022 0 0 0
  3.00615 -0.571044   3.28934 177 165 159
-0.117699  0.070452   1.84284 174 176 188
-0.098719  0.194628  0.941737 150 152 163
-0.0372073   0.177025   0.857351 0 0 8
-0.256154  0.251898   1.36494 13 21 16
   2.93912 -0.0453651    3.04177 77 91 107
-0.446009 0.0500813   2.89968 13 23 13
    2.994 -0.366407   3.63804 154 136 117
  2.99175 -0.400629   3.40328 0 0 0
 2.93337 -0.40394  3.04283 97 118 135
-0.274908  0.271587   1.11115 33 16 17
-0.386704  0.280747   1.14246 54 82 111
-0.532937  0.170608   2.96384 14 23 0
  2.97505 -0.376996   3.44357 13 13 0
0.0563808 0.0914715   0.89907 78 109 125
0.00559735  0.0752397   0.964045 91 117 137
-0.316921  0.242983   2.97392 24 23 0
-0.327943  0.269628   1.27136 29 37 75
  2.99148 -0.346204   3.68445 30 35 25
0.0290297  0.193543   1.08196 32 60 76
-0.176992 0.0950605     1.785 211 202 200
-0.368446  0.353937   2.93752 49 79 88
-0.0141597   0.173478    1.08666 22 34 50
-0.0395153   0.177003   0.860496 59 90 109
 0.0178514 0.00913828   0.974405 110 144 171
0.00974518  0.0409207    1.03657 22 37 49
 -0.2427 0.264197  1.33197 13 9 13
-0.379453  0.227276   2.94213 0 0 0
-0.0239375 -0.0443676    1.01853 43 58 59
0.00653437    0.16735   0.838857 38 62 90
 3.60288 -0.92425  4.33554 0 0 0
-0.373045  0.278758   1.17753 24 63 71
-0.0188463   0.178711      1.077 22 39 45
-0.226351  0.263214   1.10158 29 42 84
0.0434115  0.152684  0.940163 13 34 42
 0.0668859 -0.0326957    1.00685 45 72 78
-0.0199101   0.117765    0.92874 0 0 0
-0.247041  0.257534   1.39761 0 23 56
 0.0896457 -0.0371514    1.00649 22 33 37
 5.16935 -2.61751  5.48837 97 109 101
0.00663766 0.00339386   0.982632 180 177 177
-0.0231866  0.0375548    1.05145 85 115 131
-0.199314  0.233386  0.970882 121 98 87
0.800497 -0.55858  2.49113 12 18 37
-0.270205  0.271903   1.06162 173 160 152
-0.625951  0.239743   2.93144 0 11 0
0.0331569  0.169316  0.940435 67 102 125
-0.0554313   0.188884   0.867563 64 99 131
0.0206176  0.177896   1.08568 106 117 132
-0.243399  0.261161   1.11638 209 199 197
-0.267275  0.272277   1.05508 54 41 36
-0.125224   0.20147   1.39289 171 175 185
 -0.445027 -0.0755437    2.95408 23 39 52
-0.351883  0.274957   1.22097 48 81 107
 -0.217146 -0.0219105    2.89116 70 89 95
 0.012495 0.0574292   1.03553 20 41 57
-0.0998684   0.194518   0.951027 185 181 186
 0.690812 -0.932662   2.54351 85 117 138
 -0.49301 0.0817606   2.95808 0 0 0
   3.06867 0.00723758    3.31606 76 86 97
-0.00833032    0.144798    0.973776 22 42 64
-0.792569 -0.127586   3.26101 12 29 13
-0.231461 -0.246746   2.97008 107 111 112
0.0324298 0.0397306  0.966386 41 75 94
 -0.653771 -0.0206061    3.23972 71 102 103
0.00842509  -0.024421   0.979006 182 188 196
-0.258095  0.265266   1.15972 180 154 120
 0.0239133 -0.0328426   0.968359 21 46 63
-0.00384227  0.00198031     1.03559 0 27 39
